ncols         347
nrows         32
xllcorner     122.81666723
yllcorner     -1.21666591
cellsize      0.01666667
NODATA_value  -9999
-472.22 -457.17 -442.13 -427.10 -412.09 -397.08 -382.09 -367.11 -352.14 -337.19 -322.24 -307.31 -292.40 -277.49 -262.61 -247.73 -232.87 -218.03 -203.20 -188.39 -173.59 -158.81 -144.05 -129.30 -114.57 -99.86 -85.17 -70.50 -55.85 -41.21 -26.60 -12.01 0.76 5.06 9.35 13.64 17.92 22.19 26.46 30.72 34.97 39.21 43.44 47.66 51.88 56.09 60.28 64.47 68.65 72.82 76.97 81.12 85.26 89.38 93.49 97.59 101.68 105.75 109.81 113.86 117.89 121.91 125.91 129.90 133.87 137.82 141.76 145.68 149.58 153.46 157.32 161.16 164.98 168.78 172.56 176.31 180.04 183.74 187.42 191.07 194.69 198.29 201.85 205.39 208.89 212.36 215.79 219.19 222.55 225.87 229.15 232.39 235.59 238.75 241.85 244.92 247.93 250.89 253.79 256.65 259.44 262.18 264.85 267.47 270.01 272.49 274.90 277.24 279.50 281.69 283.80 285.83 287.77 289.63 291.40 293.08 294.67 296.16 297.56 298.86 300.05 301.15 302.14 303.02 303.80 304.47 305.02 305.47 305.81 306.03 306.15 306.15 306.03 305.81 305.47 305.02 304.47 303.80 303.02 302.14 301.15 300.05 298.86 297.56 296.16 294.67 293.08 291.40 289.63 287.77 285.83 283.80 281.69 279.50 277.24 274.90 272.49 270.01 267.47 264.85 262.18 259.44 256.65 253.79 250.89 247.93 244.92 241.85 238.75 235.59 232.39 229.15 225.87 222.55 219.19 215.79 212.36 208.89 205.39 201.85 198.29 194.69 191.07 187.42 183.74 180.04 176.31 172.56 168.78 164.98 161.16 157.32 153.46 149.58 145.68 141.76 137.82 133.87 129.90 125.91 121.91 117.89 113.86 109.81 105.75 101.68 97.59 93.49 89.38 85.26 81.12 76.97 72.82 68.65 64.47 60.28 56.09 51.88 47.66 43.44 39.21 34.97 30.72 26.46 22.19 17.92 13.64 9.35 5.06 0.76 -12.01 -26.60 -41.21 -55.85 -70.50 -85.17 -99.86 -114.57 -129.30 -144.05 -158.81 -173.59 -188.39 -203.20 -218.03 -232.87 -247.73 -262.61 -277.49 -292.40 -307.31 -322.24 -337.19 -352.14 -367.11 -382.09 -397.08 -412.09 -427.10 -442.13 -457.17 -472.22 -487.28 -502.35 -517.43 -532.52 -547.62 -562.73 -577.85 -592.97 -608.11 -623.26 -638.41 -653.58 -668.75 -683.93 -699.11 -714.31 -729.51 -744.72 -759.94 -775.17 -790.40 -805.64 -820.88 -836.14 -851.40 -866.66 -881.94 -897.22 -912.50 -927.79 -943.09 -958.39 -973.70 -989.02 -1004.34 -1019.66 -1034.99 -1050.33 -1065.67 -1081.02 -1096.37 -1111.73 -1127.09 -1142.45 -1157.82 -1173.20 -1188.58 -1203.97 -1219.35 -1234.75 -1250.15 -1265.55 -1280.95 -1296.36 -1311.78 -1327.20 -1342.62 -1358.04 -1373.47 -1388.91 -1404.34 -1419.79 -1435.23 -1450.68 -1466.13 -1481.58 -1497.04 -1512.50 -1527.97 -1543.44 -1558.91 -1574.38 -1589.86 -1605.34 -1620.82 -1636.31 -1651.80 -1667.29 -1682.78 -1698.28 -1713.78 -1729.28 -1744.79 -1760.30 -1775.81
-477.06 -462.04 -447.04 -432.05 -417.07 -402.10 -387.14 -372.20 -357.27 -342.35 -327.44 -312.55 -297.67 -282.81 -267.96 -253.13 -238.31 -223.51 -208.72 -193.96 -179.20 -164.47 -149.75 -135.05 -120.37 -105.70 -91.06 -76.44 -61.83 -47.25 -32.69 -18.15 -3.64 3.21 7.49 11.76 16.02 20.28 24.53 28.77 33.00 37.22 41.44 45.64 49.84 54.03 58.21 62.37 66.53 70.68 74.81 78.94 83.05 87.15 91.24 95.32 99.38 103.43 107.47 111.49 115.50 119.49 123.47 127.43 131.37 135.30 139.21 143.10 146.97 150.83 154.66 158.47 162.26 166.03 169.77 173.49 177.19 180.86 184.50 188.12 191.71 195.27 198.80 202.29 205.76 209.19 212.58 215.94 219.26 222.55 225.79 228.99 232.15 235.26 238.33 241.35 244.32 247.24 250.10 252.91 255.66 258.36 260.99 263.56 266.06 268.50 270.87 273.16 275.39 277.53 279.60 281.59 283.50 285.32 287.05 288.70 290.25 291.72 293.08 294.35 295.52 296.59 297.56 298.42 299.18 299.83 300.38 300.82 301.15 301.37 301.48 301.48 301.37 301.15 300.82 300.38 299.83 299.18 298.42 297.56 296.59 295.52 294.35 293.08 291.72 290.25 288.70 287.05 285.32 283.50 281.59 279.60 277.53 275.39 273.16 270.87 268.50 266.06 263.56 260.99 258.36 255.66 252.91 250.10 247.24 244.32 241.35 238.33 235.26 232.15 228.99 225.79 222.55 219.26 215.94 212.58 209.19 205.76 202.29 198.80 195.27 191.71 188.12 184.50 180.86 177.19 173.49 169.77 166.03 162.26 158.47 154.66 150.83 146.97 143.10 139.21 135.30 131.37 127.43 123.47 119.49 115.50 111.49 107.47 103.43 99.38 95.32 91.24 87.15 83.05 78.94 74.81 70.68 66.53 62.37 58.21 54.03 49.84 45.64 41.44 37.22 33.00 28.77 24.53 20.28 16.02 11.76 7.49 3.21 -3.64 -18.15 -32.69 -47.25 -61.83 -76.44 -91.06 -105.70 -120.37 -135.05 -149.75 -164.47 -179.20 -193.96 -208.72 -223.51 -238.31 -253.13 -267.96 -282.81 -297.67 -312.55 -327.44 -342.35 -357.27 -372.20 -387.14 -402.10 -417.07 -432.05 -447.04 -462.04 -477.06 -492.08 -507.12 -522.17 -537.23 -552.30 -567.37 -582.46 -597.56 -612.67 -627.78 -642.91 -658.04 -673.18 -688.34 -703.49 -718.66 -733.84 -749.02 -764.21 -779.41 -794.62 -809.83 -825.05 -840.28 -855.52 -870.76 -886.01 -901.26 -916.52 -931.79 -947.07 -962.35 -977.63 -992.92 -1008.22 -1023.53 -1038.84 -1054.15 -1069.47 -1084.80 -1100.13 -1115.46 -1130.80 -1146.15 -1161.50 -1176.86 -1192.22 -1207.58 -1222.95 -1238.33 -1253.71 -1269.09 -1284.48 -1299.87 -1315.27 -1330.67 -1346.07 -1361.48 -1376.89 -1392.31 -1407.73 -1423.15 -1438.58 -1454.01 -1469.45 -1484.89 -1500.33 -1515.77 -1531.22 -1546.67 -1562.13 -1577.59 -1593.05 -1608.52 -1623.98 -1639.46 -1654.93 -1670.41 -1685.89 -1701.37 -1716.86 -1732.35 -1747.84 -1763.33 -1778.83
-482.00 -467.02 -452.05 -437.09 -422.15 -407.22 -392.30 -377.39 -362.50 -347.62 -332.75 -317.90 -303.06 -288.24 -273.43 -258.64 -243.87 -229.11 -214.37 -199.64 -184.93 -170.24 -155.57 -140.92 -126.28 -111.67 -97.07 -82.50 -67.95 -53.41 -38.91 -24.42 -9.96 1.33 5.59 9.84 14.09 18.33 22.56 26.78 30.99 35.20 39.40 43.58 47.76 51.93 56.09 60.23 64.37 68.50 72.61 76.72 80.81 84.89 88.95 93.01 97.05 101.07 105.09 109.09 113.07 117.03 120.99 124.92 128.84 132.74 136.62 140.48 144.33 148.15 151.95 155.73 159.49 163.23 166.94 170.63 174.30 177.93 181.54 185.13 188.68 192.20 195.70 199.16 202.59 205.98 209.34 212.66 215.94 219.19 222.39 225.55 228.67 231.74 234.77 237.75 240.67 243.55 246.37 249.14 251.85 254.50 257.09 259.62 262.09 264.48 266.81 269.07 271.25 273.36 275.39 277.34 279.21 280.99 282.69 284.31 285.83 287.26 288.60 289.84 290.98 292.03 292.98 293.82 294.56 295.20 295.73 296.16 296.48 296.70 296.81 296.81 296.70 296.48 296.16 295.73 295.20 294.56 293.82 292.98 292.03 290.98 289.84 288.60 287.26 285.83 284.31 282.69 280.99 279.21 277.34 275.39 273.36 271.25 269.07 266.81 264.48 262.09 259.62 257.09 254.50 251.85 249.14 246.37 243.55 240.67 237.75 234.77 231.74 228.67 225.55 222.39 219.19 215.94 212.66 209.34 205.98 202.59 199.16 195.70 192.20 188.68 185.13 181.54 177.93 174.30 170.63 166.94 163.23 159.49 155.73 151.95 148.15 144.33 140.48 136.62 132.74 128.84 124.92 120.99 117.03 113.07 109.09 105.09 101.07 97.05 93.01 88.95 84.89 80.81 76.72 72.61 68.50 64.37 60.23 56.09 51.93 47.76 43.58 39.40 35.20 30.99 26.78 22.56 18.33 14.09 9.84 5.59 1.33 -9.96 -24.42 -38.91 -53.41 -67.95 -82.50 -97.07 -111.67 -126.28 -140.92 -155.57 -170.24 -184.93 -199.64 -214.37 -229.11 -243.87 -258.64 -273.43 -288.24 -303.06 -317.90 -332.75 -347.62 -362.50 -377.39 -392.30 -407.22 -422.15 -437.09 -452.05 -467.02 -482.00 -496.99 -512.00 -527.01 -542.04 -557.07 -572.12 -587.18 -602.24 -617.32 -632.41 -647.50 -662.61 -677.72 -692.84 -707.97 -723.11 -738.26 -753.42 -768.58 -783.75 -798.93 -814.12 -829.31 -844.52 -859.73 -874.94 -890.17 -905.40 -920.64 -935.88 -951.13 -966.39 -981.65 -996.92 -1012.19 -1027.48 -1042.76 -1058.06 -1073.35 -1088.66 -1103.97 -1119.28 -1134.60 -1149.93 -1165.26 -1180.60 -1195.94 -1211.28 -1226.63 -1241.99 -1257.35 -1272.71 -1288.08 -1303.46 -1318.83 -1334.22 -1349.60 -1364.99 -1380.39 -1395.79 -1411.19 -1426.60 -1442.01 -1457.42 -1472.84 -1488.26 -1503.69 -1519.12 -1534.55 -1549.99 -1565.43 -1580.87 -1596.32 -1611.77 -1627.22 -1642.68 -1658.14 -1673.60 -1689.06 -1704.53 -1720.01 -1735.48 -1750.96 -1766.44 -1781.92
-487.05 -472.10 -457.17 -442.25 -427.34 -412.44 -397.56 -382.69 -367.84 -353.00 -338.17 -323.36 -308.56 -293.78 -279.02 -264.27 -249.53 -234.82 -220.12 -205.44 -190.78 -176.13 -161.51 -146.90 -132.31 -117.75 -103.20 -88.68 -74.18 -59.70 -45.24 -30.81 -16.40 -2.02 3.65 7.89 12.12 16.34 20.55 24.76 28.95 33.14 37.32 41.49 45.64 49.79 53.93 58.06 62.17 66.28 70.37 74.45 78.52 82.58 86.63 90.66 94.67 98.68 102.66 106.64 110.59 114.54 118.46 122.37 126.26 130.13 133.99 137.82 141.64 145.43 149.21 152.96 156.69 160.39 164.07 167.73 171.36 174.97 178.54 182.09 185.61 189.10 192.56 195.98 199.38 202.73 206.05 209.34 212.58 215.79 218.95 222.08 225.15 228.19 231.17 234.11 237.00 239.83 242.62 245.34 248.01 250.62 253.17 255.66 258.08 260.44 262.73 264.95 267.09 269.16 271.15 273.07 274.90 276.65 278.32 279.90 281.39 282.79 284.10 285.32 286.44 287.46 288.39 289.22 289.94 290.57 291.09 291.51 291.82 292.03 292.14 292.14 292.03 291.82 291.51 291.09 290.57 289.94 289.22 288.39 287.46 286.44 285.32 284.10 282.79 281.39 279.90 278.32 276.65 274.90 273.07 271.15 269.16 267.09 264.95 262.73 260.44 258.08 255.66 253.17 250.62 248.01 245.34 242.62 239.83 237.00 234.11 231.17 228.19 225.15 222.08 218.95 215.79 212.58 209.34 206.05 202.73 199.38 195.98 192.56 189.10 185.61 182.09 178.54 174.97 171.36 167.73 164.07 160.39 156.69 152.96 149.21 145.43 141.64 137.82 133.99 130.13 126.26 122.37 118.46 114.54 110.59 106.64 102.66 98.68 94.67 90.66 86.63 82.58 78.52 74.45 70.37 66.28 62.17 58.06 53.93 49.79 45.64 41.49 37.32 33.14 28.95 24.76 20.55 16.34 12.12 7.89 3.65 -2.02 -16.40 -30.81 -45.24 -59.70 -74.18 -88.68 -103.20 -117.75 -132.31 -146.90 -161.51 -176.13 -190.78 -205.44 -220.12 -234.82 -249.53 -264.27 -279.02 -293.78 -308.56 -323.36 -338.17 -353.00 -367.84 -382.69 -397.56 -412.44 -427.34 -442.25 -457.17 -472.10 -487.05 -502.01 -516.98 -531.96 -546.95 -561.95 -576.97 -591.99 -607.03 -622.07 -637.13 -652.19 -667.27 -682.35 -697.44 -712.54 -727.66 -742.78 -757.90 -773.04 -788.19 -803.34 -818.50 -833.67 -848.84 -864.03 -879.22 -894.42 -909.62 -924.84 -940.06 -955.28 -970.52 -985.76 -1001.00 -1016.25 -1031.51 -1046.78 -1062.05 -1077.32 -1092.61 -1107.89 -1123.19 -1138.49 -1153.79 -1169.10 -1184.42 -1199.74 -1215.06 -1230.39 -1245.73 -1261.07 -1276.42 -1291.77 -1307.12 -1322.48 -1337.84 -1353.21 -1368.58 -1383.96 -1399.34 -1414.73 -1430.12 -1445.51 -1460.91 -1476.31 -1491.71 -1507.12 -1522.54 -1537.95 -1553.37 -1568.80 -1584.22 -1599.66 -1615.09 -1630.53 -1645.97 -1661.41 -1676.86 -1692.31 -1707.77 -1723.22 -1738.68 -1754.15 -1769.61 -1785.08
-492.20 -477.29 -462.39 -447.51 -432.63 -417.78 -402.93 -388.10 -373.28 -358.48 -343.70 -328.93 -314.17 -299.43 -284.71 -270.00 -255.31 -240.64 -225.99 -211.35 -196.73 -182.14 -167.56 -153.00 -138.46 -123.95 -109.45 -94.98 -80.53 -66.10 -51.70 -37.32 -22.96 -8.64 1.68 5.90 10.11 14.31 18.51 22.70 26.87 31.04 35.20 39.35 43.49 47.62 51.73 55.84 59.94 64.02 68.09 72.15 76.20 80.24 84.26 88.26 92.26 96.24 100.20 104.15 108.08 112.00 115.90 119.78 123.64 127.49 131.32 135.12 138.91 142.67 146.42 150.14 153.84 157.51 161.16 164.79 168.39 171.96 175.50 179.02 182.50 185.96 189.38 192.77 196.13 199.45 202.73 205.98 209.19 212.36 215.48 218.57 221.61 224.60 227.55 230.44 233.29 236.09 238.83 241.52 244.15 246.72 249.23 251.68 254.06 256.38 258.63 260.81 262.91 264.95 266.90 268.78 270.58 272.30 273.93 275.48 276.95 278.32 279.60 280.79 281.89 282.89 283.80 284.61 285.32 285.93 286.44 286.85 287.16 287.36 287.46 287.46 287.36 287.16 286.85 286.44 285.93 285.32 284.61 283.80 282.89 281.89 280.79 279.60 278.32 276.95 275.48 273.93 272.30 270.58 268.78 266.90 264.95 262.91 260.81 258.63 256.38 254.06 251.68 249.23 246.72 244.15 241.52 238.83 236.09 233.29 230.44 227.55 224.60 221.61 218.57 215.48 212.36 209.19 205.98 202.73 199.45 196.13 192.77 189.38 185.96 182.50 179.02 175.50 171.96 168.39 164.79 161.16 157.51 153.84 150.14 146.42 142.67 138.91 135.12 131.32 127.49 123.64 119.78 115.90 112.00 108.08 104.15 100.20 96.24 92.26 88.26 84.26 80.24 76.20 72.15 68.09 64.02 59.94 55.84 51.73 47.62 43.49 39.35 35.20 31.04 26.87 22.70 18.51 14.31 10.11 5.90 1.68 -8.64 -22.96 -37.32 -51.70 -66.10 -80.53 -94.98 -109.45 -123.95 -138.46 -153.00 -167.56 -182.14 -196.73 -211.35 -225.99 -240.64 -255.31 -270.00 -284.71 -299.43 -314.17 -328.93 -343.70 -358.48 -373.28 -388.10 -402.93 -417.78 -432.63 -447.51 -462.39 -477.29 -492.20 -507.12 -522.06 -537.00 -551.96 -566.93 -581.91 -596.90 -611.91 -626.92 -641.94 -656.98 -672.02 -687.08 -702.14 -717.21 -732.29 -747.39 -762.48 -777.59 -792.71 -807.84 -822.97 -838.11 -853.26 -868.42 -883.59 -898.76 -913.94 -929.13 -944.32 -959.52 -974.73 -989.95 -1005.17 -1020.40 -1035.63 -1050.88 -1066.12 -1081.38 -1096.64 -1111.90 -1127.18 -1142.45 -1157.74 -1173.03 -1188.32 -1203.62 -1218.93 -1234.24 -1249.55 -1264.87 -1280.20 -1295.53 -1310.86 -1326.20 -1341.55 -1356.90 -1372.25 -1387.61 -1402.97 -1418.34 -1433.71 -1449.09 -1464.47 -1479.85 -1495.24 -1510.63 -1526.03 -1541.43 -1556.83 -1572.24 -1587.65 -1603.07 -1618.48 -1633.91 -1649.33 -1664.76 -1680.19 -1695.63 -1711.07 -1726.51 -1741.96 -1757.40 -1772.86 -1788.31
-497.45 -482.58 -467.71 -452.87 -438.03 -423.21 -408.41 -393.61 -378.84 -364.08 -349.33 -334.60 -319.89 -305.19 -290.51 -275.85 -261.20 -246.57 -231.96 -217.38 -202.80 -188.25 -173.72 -159.21 -144.73 -130.26 -115.81 -101.39 -87.00 -72.62 -58.27 -43.95 -29.65 -15.38 -1.13 3.87 8.06 12.25 16.43 20.60 24.76 28.91 33.05 37.18 41.29 45.40 49.50 53.59 57.66 61.73 65.78 69.81 73.84 77.85 81.85 85.83 89.80 93.76 97.70 101.62 105.53 109.42 113.29 117.15 120.99 124.80 128.60 132.38 136.14 139.88 143.59 147.28 150.95 154.60 158.21 161.81 165.38 168.91 172.43 175.91 179.36 182.78 186.17 189.52 192.84 196.13 199.38 202.59 205.76 208.89 211.98 215.02 218.02 220.98 223.89 226.75 229.56 232.31 235.02 237.66 240.25 242.79 245.26 247.67 250.01 252.29 254.50 256.65 258.72 260.71 262.64 264.48 266.25 267.93 269.54 271.06 272.49 273.84 275.10 276.26 277.34 278.32 279.21 280.00 280.69 281.29 281.79 282.19 282.49 282.69 282.79 282.79 282.69 282.49 282.19 281.79 281.29 280.69 280.00 279.21 278.32 277.34 276.26 275.10 273.84 272.49 271.06 269.54 267.93 266.25 264.48 262.64 260.71 258.72 256.65 254.50 252.29 250.01 247.67 245.26 242.79 240.25 237.66 235.02 232.31 229.56 226.75 223.89 220.98 218.02 215.02 211.98 208.89 205.76 202.59 199.38 196.13 192.84 189.52 186.17 182.78 179.36 175.91 172.43 168.91 165.38 161.81 158.21 154.60 150.95 147.28 143.59 139.88 136.14 132.38 128.60 124.80 120.99 117.15 113.29 109.42 105.53 101.62 97.70 93.76 89.80 85.83 81.85 77.85 73.84 69.81 65.78 61.73 57.66 53.59 49.50 45.40 41.29 37.18 33.05 28.91 24.76 20.60 16.43 12.25 8.06 3.87 -1.13 -15.38 -29.65 -43.95 -58.27 -72.62 -87.00 -101.39 -115.81 -130.26 -144.73 -159.21 -173.72 -188.25 -202.80 -217.38 -231.96 -246.57 -261.20 -275.85 -290.51 -305.19 -319.89 -334.60 -349.33 -364.08 -378.84 -393.61 -408.41 -423.21 -438.03 -452.87 -467.71 -482.58 -497.45 -512.34 -527.24 -542.15 -557.07 -572.01 -586.96 -601.92 -616.89 -631.87 -646.86 -661.86 -676.88 -691.90 -706.93 -721.97 -737.03 -752.09 -767.16 -782.24 -797.33 -812.43 -827.53 -842.65 -857.77 -872.90 -888.04 -903.19 -918.34 -933.50 -948.67 -963.85 -979.03 -994.23 -1009.42 -1024.63 -1039.84 -1055.06 -1070.28 -1085.52 -1100.75 -1116.00 -1131.25 -1146.50 -1161.76 -1177.03 -1192.30 -1207.58 -1222.87 -1238.16 -1253.45 -1268.75 -1284.06 -1299.37 -1314.69 -1330.01 -1345.33 -1360.66 -1376.00 -1391.34 -1406.68 -1422.03 -1437.38 -1452.74 -1468.10 -1483.47 -1498.84 -1514.22 -1529.60 -1544.98 -1560.37 -1575.76 -1591.15 -1606.55 -1621.95 -1637.36 -1652.77 -1668.18 -1683.60 -1699.02 -1714.44 -1729.87 -1745.30 -1760.73 -1776.17 -1791.61
-502.80 -487.97 -473.14 -458.33 -443.53 -428.75 -413.99 -399.23 -384.50 -369.78 -355.07 -340.38 -325.71 -311.06 -296.42 -281.80 -267.20 -252.62 -238.05 -223.51 -208.99 -194.48 -180.00 -165.54 -151.10 -136.69 -122.29 -107.93 -93.58 -79.26 -64.96 -50.69 -36.45 -22.24 -8.05 1.81 5.98 10.15 14.31 18.46 22.60 26.73 30.86 34.97 39.06 43.15 47.23 51.30 55.35 59.39 63.42 67.44 71.44 75.43 79.41 83.37 87.31 91.24 95.16 99.06 102.94 106.80 110.65 114.48 118.29 122.08 125.85 129.60 133.33 137.04 140.73 144.39 148.03 151.64 155.23 158.79 162.32 165.83 169.31 172.76 176.18 179.56 182.92 186.24 189.52 192.77 195.98 199.16 202.29 205.39 208.44 211.45 214.41 217.33 220.20 223.02 225.79 228.51 231.17 233.78 236.34 238.83 241.26 243.64 245.94 248.19 250.36 252.47 254.50 256.47 258.36 260.17 261.90 263.56 265.13 266.62 268.03 269.35 270.58 271.73 272.78 273.74 274.61 275.39 276.07 276.65 277.14 277.53 277.83 278.03 278.12 278.12 278.03 277.83 277.53 277.14 276.65 276.07 275.39 274.61 273.74 272.78 271.73 270.58 269.35 268.03 266.62 265.13 263.56 261.90 260.17 258.36 256.47 254.50 252.47 250.36 248.19 245.94 243.64 241.26 238.83 236.34 233.78 231.17 228.51 225.79 223.02 220.20 217.33 214.41 211.45 208.44 205.39 202.29 199.16 195.98 192.77 189.52 186.24 182.92 179.56 176.18 172.76 169.31 165.83 162.32 158.79 155.23 151.64 148.03 144.39 140.73 137.04 133.33 129.60 125.85 122.08 118.29 114.48 110.65 106.80 102.94 99.06 95.16 91.24 87.31 83.37 79.41 75.43 71.44 67.44 63.42 59.39 55.35 51.30 47.23 43.15 39.06 34.97 30.86 26.73 22.60 18.46 14.31 10.15 5.98 1.81 -8.05 -22.24 -36.45 -50.69 -64.96 -79.26 -93.58 -107.93 -122.29 -136.69 -151.10 -165.54 -180.00 -194.48 -208.99 -223.51 -238.05 -252.62 -267.20 -281.80 -296.42 -311.06 -325.71 -340.38 -355.07 -369.78 -384.50 -399.23 -413.99 -428.75 -443.53 -458.33 -473.14 -487.97 -502.80 -517.65 -532.52 -547.40 -562.29 -577.19 -592.10 -607.03 -621.96 -636.91 -651.87 -666.84 -681.82 -696.82 -711.82 -726.83 -741.85 -756.88 -771.93 -786.98 -802.04 -817.11 -832.18 -847.27 -862.37 -877.47 -892.58 -907.70 -922.83 -937.97 -953.11 -968.26 -983.42 -998.59 -1013.76 -1028.94 -1044.13 -1059.33 -1074.53 -1089.74 -1104.95 -1120.17 -1135.40 -1150.63 -1165.87 -1181.12 -1196.37 -1211.63 -1226.89 -1242.16 -1257.43 -1272.71 -1288.00 -1303.29 -1318.59 -1333.89 -1349.19 -1364.50 -1379.82 -1395.14 -1410.47 -1425.80 -1441.13 -1456.47 -1471.81 -1487.16 -1502.52 -1517.87 -1533.23 -1548.60 -1563.97 -1579.34 -1594.72 -1610.10 -1625.49 -1640.88 -1656.27 -1671.67 -1687.07 -1702.48 -1717.88 -1733.29 -1748.71 -1764.13 -1779.55 -1794.98
-508.26 -493.46 -478.67 -463.90 -449.14 -434.40 -419.67 -404.96 -390.26 -375.58 -360.92 -346.27 -331.64 -317.03 -302.44 -287.86 -273.31 -258.77 -244.25 -229.76 -215.28 -200.83 -186.39 -171.98 -157.59 -143.23 -128.89 -114.57 -100.28 -86.01 -71.77 -57.56 -43.37 -29.21 -15.08 -0.98 3.87 8.02 12.16 16.29 20.42 24.53 28.63 32.72 36.80 40.87 44.92 48.97 53.00 57.02 61.03 65.02 69.00 72.97 76.92 80.86 84.78 88.69 92.58 96.45 100.31 104.15 107.97 111.77 115.56 119.32 123.06 126.79 130.49 134.17 137.82 141.46 145.06 148.65 152.20 155.73 159.24 162.71 166.16 169.57 172.96 176.31 179.63 182.92 186.17 189.38 192.56 195.70 198.80 201.85 204.87 207.84 210.77 213.65 216.48 219.26 222.00 224.68 227.31 229.88 232.39 234.85 237.25 239.58 241.85 244.06 246.20 248.27 250.27 252.20 254.06 255.84 257.54 259.17 260.71 262.18 263.56 264.85 266.06 267.18 268.22 269.16 270.01 270.77 271.44 272.01 272.49 272.88 273.16 273.36 273.45 273.45 273.36 273.16 272.88 272.49 272.01 271.44 270.77 270.01 269.16 268.22 267.18 266.06 264.85 263.56 262.18 260.71 259.17 257.54 255.84 254.06 252.20 250.27 248.27 246.20 244.06 241.85 239.58 237.25 234.85 232.39 229.88 227.31 224.68 222.00 219.26 216.48 213.65 210.77 207.84 204.87 201.85 198.80 195.70 192.56 189.38 186.17 182.92 179.63 176.31 172.96 169.57 166.16 162.71 159.24 155.73 152.20 148.65 145.06 141.46 137.82 134.17 130.49 126.79 123.06 119.32 115.56 111.77 107.97 104.15 100.31 96.45 92.58 88.69 84.78 80.86 76.92 72.97 69.00 65.02 61.03 57.02 53.00 48.97 44.92 40.87 36.80 32.72 28.63 24.53 20.42 16.29 12.16 8.02 3.87 -0.98 -15.08 -29.21 -43.37 -57.56 -71.77 -86.01 -100.28 -114.57 -128.89 -143.23 -157.59 -171.98 -186.39 -200.83 -215.28 -229.76 -244.25 -258.77 -273.31 -287.86 -302.44 -317.03 -331.64 -346.27 -360.92 -375.58 -390.26 -404.96 -419.67 -434.40 -449.14 -463.90 -478.67 -493.46 -508.26 -523.07 -537.90 -552.74 -567.59 -582.46 -597.34 -612.23 -627.14 -642.05 -656.98 -671.92 -686.87 -701.83 -716.80 -731.78 -746.77 -761.77 -776.78 -791.81 -806.84 -821.88 -836.93 -851.99 -867.05 -882.13 -897.22 -912.31 -927.41 -942.52 -957.64 -972.77 -987.90 -1003.04 -1018.19 -1033.34 -1048.51 -1063.68 -1078.86 -1094.04 -1109.23 -1124.43 -1139.63 -1154.84 -1170.06 -1185.29 -1200.52 -1215.75 -1230.99 -1246.24 -1261.49 -1276.75 -1292.02 -1307.29 -1322.56 -1337.84 -1353.13 -1368.42 -1383.72 -1399.02 -1414.33 -1429.64 -1444.95 -1460.27 -1475.60 -1490.93 -1506.26 -1521.60 -1536.95 -1552.30 -1567.65 -1583.00 -1598.37 -1613.73 -1629.10 -1644.47 -1659.85 -1675.23 -1690.61 -1706.00 -1721.40 -1736.79 -1752.19 -1767.59 -1783.00 -1798.41
-513.81 -499.05 -484.30 -469.56 -454.84 -440.14 -425.45 -410.78 -396.13 -381.49 -366.87 -352.26 -337.68 -323.11 -308.56 -294.03 -279.52 -265.03 -250.56 -236.11 -221.69 -207.28 -192.90 -178.54 -164.20 -149.88 -135.60 -121.33 -107.09 -92.88 -78.70 -64.54 -50.41 -36.31 -22.24 -8.20 1.72 5.85 9.97 14.09 18.19 22.28 26.37 30.44 34.50 38.54 42.58 46.60 50.62 54.62 58.60 62.57 66.53 70.47 74.40 78.32 82.22 86.10 89.96 93.81 97.64 101.46 105.25 109.03 112.79 116.52 120.24 123.93 127.61 131.26 134.88 138.49 142.06 145.62 149.14 152.64 156.11 159.56 162.97 166.35 169.71 173.03 176.31 179.56 182.78 185.96 189.10 192.20 195.27 198.29 201.27 204.20 207.09 209.94 212.73 215.48 218.18 220.82 223.41 225.95 228.43 230.85 233.21 235.51 237.75 239.92 242.02 244.06 246.03 247.93 249.75 251.50 253.17 254.77 256.29 257.72 259.08 260.35 261.54 262.64 263.65 264.57 265.41 266.16 266.81 267.37 267.84 268.22 268.50 268.69 268.78 268.78 268.69 268.50 268.22 267.84 267.37 266.81 266.16 265.41 264.57 263.65 262.64 261.54 260.35 259.08 257.72 256.29 254.77 253.17 251.50 249.75 247.93 246.03 244.06 242.02 239.92 237.75 235.51 233.21 230.85 228.43 225.95 223.41 220.82 218.18 215.48 212.73 209.94 207.09 204.20 201.27 198.29 195.27 192.20 189.10 185.96 182.78 179.56 176.31 173.03 169.71 166.35 162.97 159.56 156.11 152.64 149.14 145.62 142.06 138.49 134.88 131.26 127.61 123.93 120.24 116.52 112.79 109.03 105.25 101.46 97.64 93.81 89.96 86.10 82.22 78.32 74.40 70.47 66.53 62.57 58.60 54.62 50.62 46.60 42.58 38.54 34.50 30.44 26.37 22.28 18.19 14.09 9.97 5.85 1.72 -8.20 -22.24 -36.31 -50.41 -64.54 -78.70 -92.88 -107.09 -121.33 -135.60 -149.88 -164.20 -178.54 -192.90 -207.28 -221.69 -236.11 -250.56 -265.03 -279.52 -294.03 -308.56 -323.11 -337.68 -352.26 -366.87 -381.49 -396.13 -410.78 -425.45 -440.14 -454.84 -469.56 -484.30 -499.05 -513.81 -528.59 -543.38 -558.18 -573.00 -587.83 -602.68 -617.54 -632.41 -647.29 -662.18 -677.09 -692.00 -706.93 -721.87 -736.82 -751.78 -766.75 -781.73 -796.73 -811.73 -826.74 -841.76 -856.79 -871.83 -886.88 -901.94 -917.00 -932.08 -947.16 -962.25 -977.35 -992.46 -1007.57 -1022.70 -1037.83 -1052.97 -1068.11 -1083.27 -1098.43 -1113.60 -1128.77 -1143.95 -1159.14 -1174.33 -1189.53 -1204.74 -1219.95 -1235.17 -1250.40 -1265.63 -1280.87 -1296.11 -1311.36 -1326.62 -1341.88 -1357.14 -1372.42 -1387.69 -1402.97 -1418.26 -1433.55 -1448.85 -1464.15 -1479.46 -1494.77 -1510.09 -1525.41 -1540.73 -1556.06 -1571.40 -1586.74 -1602.08 -1617.43 -1632.78 -1648.14 -1663.50 -1678.86 -1694.23 -1709.60 -1724.98 -1740.36 -1755.74 -1771.13 -1786.52 -1801.91
-519.46 -504.74 -490.03 -475.33 -460.65 -445.99 -431.34 -416.71 -402.10 -387.50 -372.92 -358.36 -343.82 -329.30 -314.79 -300.31 -285.84 -271.40 -256.98 -242.58 -228.20 -213.84 -199.51 -185.20 -170.91 -156.65 -142.41 -128.20 -114.02 -99.86 -85.73 -71.63 -57.56 -43.52 -29.50 -15.52 -1.57 3.65 7.75 11.85 15.93 20.01 24.07 28.12 32.16 36.19 40.20 44.21 48.20 52.17 56.14 60.09 64.02 67.94 71.85 75.74 79.61 83.47 87.31 91.14 94.94 98.73 102.50 106.25 109.98 113.69 117.38 121.04 124.69 128.31 131.91 135.48 139.03 142.55 146.05 149.52 152.96 156.37 159.75 163.10 166.42 169.71 172.96 176.18 179.36 182.50 185.61 188.68 191.71 194.69 197.64 200.54 203.39 206.20 208.96 211.67 214.33 216.94 219.50 222.00 224.44 226.83 229.15 231.42 233.62 235.76 237.83 239.83 241.77 243.64 245.43 247.15 248.79 250.36 251.85 253.26 254.59 255.84 257.00 258.08 259.08 259.99 260.81 261.54 262.18 262.73 263.19 263.56 263.83 264.02 264.11 264.11 264.02 263.83 263.56 263.19 262.73 262.18 261.54 260.81 259.99 259.08 258.08 257.00 255.84 254.59 253.26 251.85 250.36 248.79 247.15 245.43 243.64 241.77 239.83 237.83 235.76 233.62 231.42 229.15 226.83 224.44 222.00 219.50 216.94 214.33 211.67 208.96 206.20 203.39 200.54 197.64 194.69 191.71 188.68 185.61 182.50 179.36 176.18 172.96 169.71 166.42 163.10 159.75 156.37 152.96 149.52 146.05 142.55 139.03 135.48 131.91 128.31 124.69 121.04 117.38 113.69 109.98 106.25 102.50 98.73 94.94 91.14 87.31 83.47 79.61 75.74 71.85 67.94 64.02 60.09 56.14 52.17 48.20 44.21 40.20 36.19 32.16 28.12 24.07 20.01 15.93 11.85 7.75 3.65 -1.57 -15.52 -29.50 -43.52 -57.56 -71.63 -85.73 -99.86 -114.02 -128.20 -142.41 -156.65 -170.91 -185.20 -199.51 -213.84 -228.20 -242.58 -256.98 -271.40 -285.84 -300.31 -314.79 -329.30 -343.82 -358.36 -372.92 -387.50 -402.10 -416.71 -431.34 -445.99 -460.65 -475.33 -490.03 -504.74 -519.46 -534.20 -548.96 -563.72 -578.51 -593.30 -608.11 -622.93 -637.77 -652.62 -667.48 -682.35 -697.23 -712.13 -727.04 -741.95 -756.88 -771.82 -786.78 -801.74 -816.71 -831.69 -846.68 -861.68 -876.69 -891.71 -906.74 -921.78 -936.83 -951.89 -966.95 -982.02 -997.11 -1012.19 -1027.29 -1042.40 -1057.51 -1072.63 -1087.76 -1102.90 -1118.04 -1133.19 -1148.35 -1163.51 -1178.68 -1193.86 -1209.05 -1224.24 -1239.44 -1254.64 -1269.85 -1285.07 -1300.29 -1315.52 -1330.75 -1345.99 -1361.23 -1376.49 -1391.74 -1407.00 -1422.27 -1437.54 -1452.82 -1468.10 -1483.39 -1498.69 -1513.98 -1529.29 -1544.59 -1559.90 -1575.22 -1590.54 -1605.87 -1621.20 -1636.53 -1651.87 -1667.21 -1682.56 -1697.91 -1713.27 -1728.63 -1743.99 -1759.36 -1774.73 -1790.10 -1805.48
-525.21 -510.52 -495.85 -481.20 -466.56 -451.94 -437.33 -422.74 -408.17 -393.61 -379.08 -364.56 -350.06 -335.59 -321.13 -306.69 -292.27 -277.88 -263.50 -249.15 -234.82 -220.51 -206.23 -191.97 -177.73 -163.53 -149.34 -135.19 -121.06 -106.95 -92.88 -78.84 -64.82 -50.84 -36.89 -22.96 -9.08 1.41 5.50 9.57 13.64 17.69 21.74 25.77 29.79 33.79 37.79 41.77 45.74 49.70 53.64 57.56 61.48 65.37 69.26 73.12 76.97 80.81 84.62 88.42 92.20 95.97 99.71 103.43 107.14 110.82 114.48 118.12 121.74 125.33 128.90 132.44 135.96 139.45 142.92 146.36 149.77 153.15 156.50 159.81 163.10 166.35 169.57 172.76 175.91 179.02 182.09 185.13 188.12 191.07 193.98 196.85 199.67 202.44 205.16 207.84 210.47 213.04 215.56 218.02 220.43 222.78 225.08 227.31 229.47 231.58 233.62 235.59 237.50 239.33 241.10 242.79 244.40 245.94 247.41 248.79 250.10 251.33 252.47 253.53 254.50 255.39 256.20 256.92 257.54 258.08 258.54 258.90 259.17 259.35 259.44 259.44 259.35 259.17 258.90 258.54 258.08 257.54 256.92 256.20 255.39 254.50 253.53 252.47 251.33 250.10 248.79 247.41 245.94 244.40 242.79 241.10 239.33 237.50 235.59 233.62 231.58 229.47 227.31 225.08 222.78 220.43 218.02 215.56 213.04 210.47 207.84 205.16 202.44 199.67 196.85 193.98 191.07 188.12 185.13 182.09 179.02 175.91 172.76 169.57 166.35 163.10 159.81 156.50 153.15 149.77 146.36 142.92 139.45 135.96 132.44 128.90 125.33 121.74 118.12 114.48 110.82 107.14 103.43 99.71 95.97 92.20 88.42 84.62 80.81 76.97 73.12 69.26 65.37 61.48 57.56 53.64 49.70 45.74 41.77 37.79 33.79 29.79 25.77 21.74 17.69 13.64 9.57 5.50 1.41 -9.08 -22.96 -36.89 -50.84 -64.82 -78.84 -92.88 -106.95 -121.06 -135.19 -149.34 -163.53 -177.73 -191.97 -206.23 -220.51 -234.82 -249.15 -263.50 -277.88 -292.27 -306.69 -321.13 -335.59 -350.06 -364.56 -379.08 -393.61 -408.17 -422.74 -437.33 -451.94 -466.56 -481.20 -495.85 -510.52 -525.21 -539.91 -554.63 -569.36 -584.11 -598.87 -613.64 -628.43 -643.23 -658.04 -672.87 -687.71 -702.56 -717.42 -732.29 -747.18 -762.08 -776.99 -791.91 -806.84 -821.78 -836.73 -851.69 -866.66 -881.65 -896.64 -911.64 -926.65 -941.67 -956.70 -971.73 -986.78 -1001.84 -1016.90 -1031.97 -1047.05 -1062.14 -1077.23 -1092.34 -1107.45 -1122.57 -1137.69 -1152.83 -1167.97 -1183.12 -1198.27 -1213.43 -1228.60 -1243.78 -1258.96 -1274.14 -1289.34 -1304.54 -1319.75 -1334.96 -1350.18 -1365.40 -1380.63 -1395.87 -1411.11 -1426.36 -1441.61 -1456.87 -1472.13 -1487.40 -1502.67 -1517.95 -1533.23 -1548.52 -1563.82 -1579.12 -1594.42 -1609.73 -1625.04 -1640.35 -1655.68 -1671.00 -1686.33 -1701.67 -1717.00 -1732.35 -1747.69 -1763.04 -1778.40 -1793.76 -1809.12
-531.06 -516.41 -501.78 -487.16 -472.56 -457.98 -443.42 -428.87 -414.34 -399.83 -385.34 -370.87 -356.41 -341.98 -327.57 -313.17 -298.80 -284.45 -270.13 -255.82 -241.54 -227.29 -213.05 -198.85 -184.67 -170.51 -156.38 -142.28 -128.20 -114.16 -100.14 -86.15 -72.20 -58.27 -44.38 -30.52 -16.69 -2.90 3.21 7.27 11.31 15.35 19.37 23.38 27.38 31.37 35.34 39.30 43.25 47.18 51.10 55.01 58.90 62.77 66.63 70.47 74.30 78.11 81.90 85.68 89.43 93.17 96.89 100.58 104.26 107.91 111.55 115.16 118.75 122.31 125.85 129.37 132.86 136.32 139.76 143.16 146.54 149.89 153.21 156.50 159.75 162.97 166.16 169.31 172.43 175.50 178.54 181.54 184.50 187.42 190.30 193.13 195.91 198.65 201.34 203.98 206.57 209.11 211.60 214.03 216.40 218.72 220.98 223.18 225.31 227.39 229.39 231.34 233.21 235.02 236.75 238.41 240.00 241.52 242.96 244.32 245.60 246.80 247.93 248.97 249.93 250.80 251.59 252.29 252.91 253.44 253.88 254.24 254.50 254.68 254.77 254.77 254.68 254.50 254.24 253.88 253.44 252.91 252.29 251.59 250.80 249.93 248.97 247.93 246.80 245.60 244.32 242.96 241.52 240.00 238.41 236.75 235.02 233.21 231.34 229.39 227.39 225.31 223.18 220.98 218.72 216.40 214.03 211.60 209.11 206.57 203.98 201.34 198.65 195.91 193.13 190.30 187.42 184.50 181.54 178.54 175.50 172.43 169.31 166.16 162.97 159.75 156.50 153.21 149.89 146.54 143.16 139.76 136.32 132.86 129.37 125.85 122.31 118.75 115.16 111.55 107.91 104.26 100.58 96.89 93.17 89.43 85.68 81.90 78.11 74.30 70.47 66.63 62.77 58.90 55.01 51.10 47.18 43.25 39.30 35.34 31.37 27.38 23.38 19.37 15.35 11.31 7.27 3.21 -2.90 -16.69 -30.52 -44.38 -58.27 -72.20 -86.15 -100.14 -114.16 -128.20 -142.28 -156.38 -170.51 -184.67 -198.85 -213.05 -227.29 -241.54 -255.82 -270.13 -284.45 -298.80 -313.17 -327.57 -341.98 -356.41 -370.87 -385.34 -399.83 -414.34 -428.87 -443.42 -457.98 -472.56 -487.16 -501.78 -516.41 -531.06 -545.72 -560.40 -575.10 -589.80 -604.53 -619.26 -634.02 -648.78 -663.56 -678.35 -693.16 -707.97 -722.80 -737.64 -752.50 -767.36 -782.24 -797.13 -812.03 -826.94 -841.86 -856.79 -871.73 -886.68 -901.65 -916.62 -931.60 -946.59 -961.59 -976.60 -991.62 -1006.65 -1021.69 -1036.73 -1051.79 -1066.85 -1081.92 -1097.00 -1112.08 -1127.18 -1142.28 -1157.39 -1172.50 -1187.63 -1202.76 -1217.90 -1233.04 -1248.19 -1263.35 -1278.52 -1293.69 -1308.87 -1324.05 -1339.24 -1354.44 -1369.64 -1384.85 -1400.07 -1415.29 -1430.52 -1445.75 -1460.99 -1476.23 -1491.48 -1506.73 -1521.99 -1537.26 -1552.53 -1567.80 -1583.08 -1598.37 -1613.66 -1628.95 -1644.25 -1659.55 -1674.86 -1690.17 -1705.49 -1720.81 -1736.14 -1751.47 -1766.80 -1782.14 -1797.48 -1812.83
-537.00 -522.39 -507.80 -493.23 -478.67 -464.13 -449.61 -435.10 -420.61 -406.15 -391.70 -377.27 -362.86 -348.47 -334.11 -319.76 -305.44 -291.14 -276.86 -262.61 -248.38 -234.17 -219.99 -205.83 -191.70 -177.60 -163.53 -149.48 -135.46 -121.47 -107.51 -93.58 -79.68 -65.82 -51.98 -38.18 -24.42 -10.69 0.89 4.93 8.95 12.97 16.97 20.96 24.94 28.91 32.86 36.80 40.72 44.64 48.53 52.42 56.28 60.14 63.97 67.79 71.59 75.38 79.15 82.89 86.63 90.34 94.03 97.70 101.35 104.98 108.58 112.17 115.73 119.26 122.77 126.26 129.72 133.15 136.56 139.94 143.29 146.60 149.89 153.15 156.37 159.56 162.71 165.83 168.91 171.96 174.97 177.93 180.86 183.74 186.58 189.38 192.13 194.84 197.49 200.10 202.66 205.16 207.62 210.01 212.36 214.64 216.87 219.03 221.14 223.18 225.15 227.07 228.91 230.69 232.39 234.03 235.59 237.08 238.50 239.83 241.10 242.28 243.38 244.40 245.34 246.20 246.98 247.67 248.27 248.79 249.23 249.58 249.84 250.01 250.10 250.10 250.01 249.84 249.58 249.23 248.79 248.27 247.67 246.98 246.20 245.34 244.40 243.38 242.28 241.10 239.83 238.50 237.08 235.59 234.03 232.39 230.69 228.91 227.07 225.15 223.18 221.14 219.03 216.87 214.64 212.36 210.01 207.62 205.16 202.66 200.10 197.49 194.84 192.13 189.38 186.58 183.74 180.86 177.93 174.97 171.96 168.91 165.83 162.71 159.56 156.37 153.15 149.89 146.60 143.29 139.94 136.56 133.15 129.72 126.26 122.77 119.26 115.73 112.17 108.58 104.98 101.35 97.70 94.03 90.34 86.63 82.89 79.15 75.38 71.59 67.79 63.97 60.14 56.28 52.42 48.53 44.64 40.72 36.80 32.86 28.91 24.94 20.96 16.97 12.97 8.95 4.93 0.89 -10.69 -24.42 -38.18 -51.98 -65.82 -79.68 -93.58 -107.51 -121.47 -135.46 -149.48 -163.53 -177.60 -191.70 -205.83 -219.99 -234.17 -248.38 -262.61 -276.86 -291.14 -305.44 -319.76 -334.11 -348.47 -362.86 -377.27 -391.70 -406.15 -420.61 -435.10 -449.61 -464.13 -478.67 -493.23 -507.80 -522.39 -537.00 -551.63 -566.27 -580.92 -595.60 -610.28 -624.98 -639.70 -654.43 -669.17 -683.93 -698.70 -713.48 -728.27 -743.08 -757.90 -772.74 -787.58 -802.44 -817.31 -832.18 -847.08 -861.98 -876.89 -891.81 -906.74 -921.69 -936.64 -951.60 -966.57 -981.56 -996.55 -1011.55 -1026.56 -1041.58 -1056.60 -1071.64 -1086.68 -1101.74 -1116.80 -1131.87 -1146.94 -1162.03 -1177.12 -1192.22 -1207.33 -1222.44 -1237.56 -1252.69 -1267.83 -1282.97 -1298.12 -1313.27 -1328.44 -1343.61 -1358.78 -1373.96 -1389.15 -1404.34 -1419.54 -1434.75 -1449.96 -1465.18 -1480.40 -1495.63 -1510.87 -1526.11 -1541.35 -1556.60 -1571.86 -1587.12 -1602.38 -1617.65 -1632.93 -1648.21 -1663.50 -1678.79 -1694.08 -1709.38 -1724.68 -1739.99 -1755.31 -1770.62 -1785.94 -1801.27 -1816.60
-543.04 -528.47 -513.92 -499.39 -484.87 -470.37 -455.89 -441.43 -426.99 -412.56 -398.16 -383.78 -369.41 -355.07 -340.75 -326.45 -312.18 -297.93 -283.70 -269.49 -255.31 -241.16 -227.03 -212.92 -198.85 -184.80 -170.78 -156.78 -142.82 -128.89 -114.99 -101.12 -87.28 -73.47 -59.70 -45.96 -32.26 -18.59 -4.96 2.55 6.56 10.55 14.54 18.51 22.47 26.41 30.34 34.26 38.17 42.06 45.93 49.79 53.64 57.47 61.28 65.07 68.85 72.61 76.36 80.08 83.79 87.47 91.14 94.78 98.40 102.01 105.58 109.14 112.67 116.18 119.66 123.12 126.55 129.96 133.33 136.68 140.00 143.29 146.54 149.77 152.96 156.11 159.24 162.32 165.38 168.39 171.36 174.30 177.19 180.04 182.85 185.61 188.33 191.00 193.62 196.20 198.72 201.19 203.61 205.98 208.29 210.54 212.73 214.87 216.94 218.95 220.90 222.78 224.60 226.35 228.03 229.64 231.17 232.64 234.03 235.35 236.58 237.75 238.83 239.83 240.76 241.60 242.36 243.04 243.64 244.15 244.57 244.92 245.17 245.34 245.43 245.43 245.34 245.17 244.92 244.57 244.15 243.64 243.04 242.36 241.60 240.76 239.83 238.83 237.75 236.58 235.35 234.03 232.64 231.17 229.64 228.03 226.35 224.60 222.78 220.90 218.95 216.94 214.87 212.73 210.54 208.29 205.98 203.61 201.19 198.72 196.20 193.62 191.00 188.33 185.61 182.85 180.04 177.19 174.30 171.36 168.39 165.38 162.32 159.24 156.11 152.96 149.77 146.54 143.29 140.00 136.68 133.33 129.96 126.55 123.12 119.66 116.18 112.67 109.14 105.58 102.01 98.40 94.78 91.14 87.47 83.79 80.08 76.36 72.61 68.85 65.07 61.28 57.47 53.64 49.79 45.93 42.06 38.17 34.26 30.34 26.41 22.47 18.51 14.54 10.55 6.56 2.55 -4.96 -18.59 -32.26 -45.96 -59.70 -73.47 -87.28 -101.12 -114.99 -128.89 -142.82 -156.78 -170.78 -184.80 -198.85 -212.92 -227.03 -241.16 -255.31 -269.49 -283.70 -297.93 -312.18 -326.45 -340.75 -355.07 -369.41 -383.78 -398.16 -412.56 -426.99 -441.43 -455.89 -470.37 -484.87 -499.39 -513.92 -528.47 -543.04 -557.63 -572.23 -586.85 -601.48 -616.13 -630.79 -645.47 -660.17 -674.87 -689.59 -704.33 -719.08 -733.84 -748.61 -763.40 -778.20 -793.01 -807.84 -822.67 -837.52 -852.38 -867.25 -882.13 -897.02 -911.93 -926.84 -941.76 -956.70 -971.64 -986.59 -1001.56 -1016.53 -1031.51 -1046.50 -1061.50 -1076.51 -1091.53 -1106.56 -1121.59 -1136.63 -1151.69 -1166.75 -1181.81 -1196.89 -1211.97 -1227.06 -1242.16 -1257.26 -1272.38 -1287.50 -1302.62 -1317.76 -1332.90 -1348.04 -1363.20 -1378.36 -1393.52 -1408.70 -1423.87 -1439.06 -1454.25 -1469.45 -1484.65 -1499.86 -1515.07 -1530.29 -1545.52 -1560.75 -1575.99 -1591.23 -1606.47 -1621.73 -1636.98 -1652.24 -1667.51 -1682.78 -1698.06 -1713.34 -1728.63 -1743.92 -1759.21 -1774.51 -1789.82 -1805.13 -1820.44
-549.18 -534.65 -520.14 -505.65 -491.17 -476.71 -462.27 -447.86 -433.46 -419.08 -404.72 -390.38 -376.06 -361.77 -347.50 -333.25 -319.02 -304.81 -290.64 -276.48 -262.35 -248.25 -234.17 -220.12 -206.10 -192.10 -178.13 -164.20 -150.29 -136.41 -122.57 -108.76 -94.98 -81.23 -67.52 -53.84 -40.20 -26.60 -13.04 0.15 4.13 8.11 12.07 16.02 19.96 23.88 27.80 31.69 35.58 39.44 43.30 47.13 50.96 54.76 58.55 62.32 66.08 69.81 73.53 77.23 80.91 84.57 88.21 91.83 95.43 99.00 102.55 106.08 109.59 113.07 116.52 119.95 123.35 126.73 130.07 133.39 136.68 139.94 143.16 146.36 149.52 152.64 155.73 158.79 161.81 164.79 167.73 170.63 173.49 176.31 179.09 181.82 184.50 187.14 189.73 192.27 194.77 197.21 199.59 201.93 204.20 206.42 208.59 210.69 212.73 214.72 216.63 218.49 220.28 222.00 223.65 225.23 226.75 228.19 229.56 230.85 232.07 233.21 234.28 235.26 236.17 237.00 237.75 238.41 239.00 239.50 239.92 240.25 240.51 240.67 240.76 240.76 240.67 240.51 240.25 239.92 239.50 239.00 238.41 237.75 237.00 236.17 235.26 234.28 233.21 232.07 230.85 229.56 228.19 226.75 225.23 223.65 222.00 220.28 218.49 216.63 214.72 212.73 210.69 208.59 206.42 204.20 201.93 199.59 197.21 194.77 192.27 189.73 187.14 184.50 181.82 179.09 176.31 173.49 170.63 167.73 164.79 161.81 158.79 155.73 152.64 149.52 146.36 143.16 139.94 136.68 133.39 130.07 126.73 123.35 119.95 116.52 113.07 109.59 106.08 102.55 99.00 95.43 91.83 88.21 84.57 80.91 77.23 73.53 69.81 66.08 62.32 58.55 54.76 50.96 47.13 43.30 39.44 35.58 31.69 27.80 23.88 19.96 16.02 12.07 8.11 4.13 0.15 -13.04 -26.60 -40.20 -53.84 -67.52 -81.23 -94.98 -108.76 -122.57 -136.41 -150.29 -164.20 -178.13 -192.10 -206.10 -220.12 -234.17 -248.25 -262.35 -276.48 -290.64 -304.81 -319.02 -333.25 -347.50 -361.77 -376.06 -390.38 -404.72 -419.08 -433.46 -447.86 -462.27 -476.71 -491.17 -505.65 -520.14 -534.65 -549.18 -563.72 -578.29 -592.87 -607.46 -622.07 -636.70 -651.34 -666.00 -680.67 -695.35 -710.05 -724.77 -739.49 -754.23 -768.99 -783.75 -798.53 -813.32 -828.13 -842.94 -857.77 -872.61 -887.46 -902.32 -917.19 -932.08 -946.97 -961.88 -976.79 -991.72 -1006.65 -1021.59 -1036.55 -1051.51 -1066.49 -1081.47 -1096.46 -1111.46 -1126.47 -1141.48 -1156.51 -1171.54 -1186.59 -1201.64 -1216.70 -1231.76 -1246.83 -1261.92 -1277.00 -1292.10 -1307.20 -1322.31 -1337.43 -1352.56 -1367.69 -1382.82 -1397.97 -1413.12 -1428.28 -1443.44 -1458.61 -1473.79 -1488.97 -1504.16 -1519.35 -1534.55 -1549.76 -1564.97 -1580.18 -1595.41 -1610.63 -1625.87 -1641.10 -1656.35 -1671.60 -1686.85 -1702.11 -1717.37 -1732.64 -1747.91 -1763.19 -1778.47 -1793.76 -1809.05 -1824.35
-555.41 -540.92 -526.45 -512.00 -497.56 -483.15 -468.75 -454.38 -440.02 -425.69 -411.38 -397.08 -382.81 -368.56 -354.34 -340.14 -325.96 -311.80 -297.67 -283.57 -269.49 -255.44 -241.41 -227.42 -213.45 -199.51 -185.60 -171.72 -157.86 -144.05 -130.26 -116.51 -102.79 -89.10 -75.45 -61.83 -48.26 -34.72 -21.22 -7.76 1.68 5.63 9.57 13.50 17.42 21.33 25.22 29.09 32.95 36.80 40.63 44.44 48.24 52.03 55.79 59.54 63.27 66.98 70.68 74.35 78.01 81.64 85.26 88.85 92.42 95.97 99.49 102.99 106.47 109.92 113.35 116.75 120.12 123.47 126.79 130.07 133.33 136.56 139.76 142.92 146.05 149.14 152.20 155.23 158.21 161.16 164.07 166.94 169.77 172.56 175.30 178.00 180.65 183.26 185.82 188.33 190.79 193.20 195.55 197.85 200.10 202.29 204.42 206.50 208.51 210.47 212.36 214.18 215.94 217.64 219.26 220.82 222.31 223.73 225.08 226.35 227.55 228.67 229.72 230.69 231.58 232.39 233.13 233.78 234.36 234.85 235.26 235.59 235.84 236.01 236.09 236.09 236.01 235.84 235.59 235.26 234.85 234.36 233.78 233.13 232.39 231.58 230.69 229.72 228.67 227.55 226.35 225.08 223.73 222.31 220.82 219.26 217.64 215.94 214.18 212.36 210.47 208.51 206.50 204.42 202.29 200.10 197.85 195.55 193.20 190.79 188.33 185.82 183.26 180.65 178.00 175.30 172.56 169.77 166.94 164.07 161.16 158.21 155.23 152.20 149.14 146.05 142.92 139.76 136.56 133.33 130.07 126.79 123.47 120.12 116.75 113.35 109.92 106.47 102.99 99.49 95.97 92.42 88.85 85.26 81.64 78.01 74.35 70.68 66.98 63.27 59.54 55.79 52.03 48.24 44.44 40.63 36.80 32.95 29.09 25.22 21.33 17.42 13.50 9.57 5.63 1.68 -7.76 -21.22 -34.72 -48.26 -61.83 -75.45 -89.10 -102.79 -116.51 -130.26 -144.05 -157.86 -171.72 -185.60 -199.51 -213.45 -227.42 -241.41 -255.44 -269.49 -283.57 -297.67 -311.80 -325.96 -340.14 -354.34 -368.56 -382.81 -397.08 -411.38 -425.69 -440.02 -454.38 -468.75 -483.15 -497.56 -512.00 -526.45 -540.92 -555.41 -569.91 -584.44 -598.98 -613.53 -628.11 -642.69 -657.30 -671.92 -686.55 -701.20 -715.86 -730.54 -745.24 -759.94 -774.66 -789.39 -804.14 -818.90 -833.67 -848.45 -863.25 -878.05 -892.87 -907.70 -922.55 -937.40 -952.26 -967.14 -982.02 -996.92 -1011.83 -1026.74 -1041.67 -1056.60 -1071.55 -1086.50 -1101.47 -1116.44 -1131.42 -1146.41 -1161.41 -1176.42 -1191.44 -1206.46 -1221.50 -1236.54 -1251.59 -1266.64 -1281.71 -1296.78 -1311.86 -1326.95 -1342.04 -1357.14 -1372.25 -1387.37 -1402.49 -1417.62 -1432.75 -1447.90 -1463.04 -1478.20 -1493.36 -1508.53 -1523.70 -1538.88 -1554.07 -1569.26 -1584.45 -1599.66 -1614.86 -1630.08 -1645.30 -1660.52 -1675.75 -1690.98 -1706.22 -1721.47 -1736.72 -1751.97 -1767.23 -1782.50 -1797.77 -1813.04 -1828.32
-561.73 -547.28 -532.86 -518.45 -504.05 -489.68 -475.33 -461.00 -446.69 -432.40 -418.13 -403.88 -389.66 -375.46 -361.28 -347.13 -333.00 -318.89 -304.81 -290.76 -276.73 -262.73 -248.76 -234.82 -220.90 -207.02 -193.16 -179.34 -165.54 -151.78 -138.05 -124.36 -110.70 -97.07 -83.48 -69.93 -56.42 -42.94 -29.50 -16.11 -2.75 3.12 7.05 10.96 14.85 18.73 22.60 26.46 30.30 34.12 37.93 41.72 45.50 49.26 53.00 56.73 60.43 64.12 67.79 71.44 75.07 78.68 82.27 85.83 89.38 92.90 96.40 99.87 103.32 106.75 110.15 113.52 116.86 120.18 123.47 126.73 129.96 133.15 136.32 139.45 142.55 145.62 148.65 151.64 154.60 157.51 160.39 163.23 166.03 168.78 171.49 174.16 176.78 179.36 181.89 184.36 186.79 189.17 191.50 193.77 195.98 198.14 200.25 202.29 204.28 206.20 208.06 209.86 211.60 213.27 214.87 216.40 217.87 219.26 220.59 221.84 223.02 224.12 225.15 226.11 226.99 227.79 228.51 229.15 229.72 230.20 230.61 230.93 231.17 231.34 231.42 231.42 231.34 231.17 230.93 230.61 230.20 229.72 229.15 228.51 227.79 226.99 226.11 225.15 224.12 223.02 221.84 220.59 219.26 217.87 216.40 214.87 213.27 211.60 209.86 208.06 206.20 204.28 202.29 200.25 198.14 195.98 193.77 191.50 189.17 186.79 184.36 181.89 179.36 176.78 174.16 171.49 168.78 166.03 163.23 160.39 157.51 154.60 151.64 148.65 145.62 142.55 139.45 136.32 133.15 129.96 126.73 123.47 120.18 116.86 113.52 110.15 106.75 103.32 99.87 96.40 92.90 89.38 85.83 82.27 78.68 75.07 71.44 67.79 64.12 60.43 56.73 53.00 49.26 45.50 41.72 37.93 34.12 30.30 26.46 22.60 18.73 14.85 10.96 7.05 3.12 -2.75 -16.11 -29.50 -42.94 -56.42 -69.93 -83.48 -97.07 -110.70 -124.36 -138.05 -151.78 -165.54 -179.34 -193.16 -207.02 -220.90 -234.82 -248.76 -262.73 -276.73 -290.76 -304.81 -318.89 -333.00 -347.13 -361.28 -375.46 -389.66 -403.88 -418.13 -432.40 -446.69 -461.00 -475.33 -489.68 -504.05 -518.45 -532.86 -547.28 -561.73 -576.20 -590.68 -605.18 -619.70 -634.23 -648.78 -663.35 -677.93 -692.53 -707.14 -721.77 -736.41 -751.07 -765.74 -780.42 -795.12 -809.83 -824.56 -839.30 -854.05 -868.81 -883.59 -898.37 -913.17 -927.98 -942.81 -957.64 -972.48 -987.34 -1002.21 -1017.08 -1031.97 -1046.87 -1061.78 -1076.69 -1091.62 -1106.56 -1121.50 -1136.46 -1151.42 -1166.40 -1181.38 -1196.37 -1211.37 -1226.38 -1241.39 -1256.42 -1271.45 -1286.49 -1301.54 -1316.59 -1331.66 -1346.73 -1361.81 -1376.89 -1391.99 -1407.08 -1422.19 -1437.30 -1452.42 -1467.55 -1482.68 -1497.82 -1512.97 -1528.12 -1543.28 -1558.45 -1573.62 -1588.79 -1603.98 -1619.16 -1634.36 -1649.56 -1664.76 -1679.97 -1695.19 -1710.41 -1725.63 -1740.87 -1756.10 -1771.34 -1786.59 -1801.84 -1817.10 -1832.36
-568.15 -553.74 -539.35 -524.99 -510.64 -496.31 -482.00 -467.71 -453.45 -439.20 -424.98 -410.78 -396.61 -382.45 -368.32 -354.22 -340.14 -326.08 -312.05 -298.05 -284.08 -270.13 -256.21 -242.32 -228.46 -214.63 -200.83 -187.06 -173.32 -159.62 -145.95 -132.31 -118.71 -105.15 -91.62 -78.13 -64.68 -51.27 -37.90 -24.57 -11.28 0.58 4.49 8.37 12.25 16.11 19.96 23.79 27.61 31.41 35.20 38.97 42.72 46.46 50.18 53.88 57.56 61.23 64.87 68.50 72.10 75.69 79.25 82.79 86.31 89.80 93.28 96.72 100.15 103.54 106.91 110.26 113.58 116.86 120.12 123.35 126.55 129.72 132.86 135.96 139.03 142.06 145.06 148.03 150.95 153.84 156.69 159.49 162.26 164.98 167.66 170.30 172.89 175.44 177.93 180.38 182.78 185.13 187.42 189.66 191.85 193.98 196.06 198.07 200.03 201.93 203.76 205.53 207.24 208.89 210.47 211.98 213.42 214.79 216.10 217.33 218.49 219.58 220.59 221.53 222.39 223.18 223.89 224.52 225.08 225.55 225.95 226.27 226.51 226.67 226.75 226.75 226.67 226.51 226.27 225.95 225.55 225.08 224.52 223.89 223.18 222.39 221.53 220.59 219.58 218.49 217.33 216.10 214.79 213.42 211.98 210.47 208.89 207.24 205.53 203.76 201.93 200.03 198.07 196.06 193.98 191.85 189.66 187.42 185.13 182.78 180.38 177.93 175.44 172.89 170.30 167.66 164.98 162.26 159.49 156.69 153.84 150.95 148.03 145.06 142.06 139.03 135.96 132.86 129.72 126.55 123.35 120.12 116.86 113.58 110.26 106.91 103.54 100.15 96.72 93.28 89.80 86.31 82.79 79.25 75.69 72.10 68.50 64.87 61.23 57.56 53.88 50.18 46.46 42.72 38.97 35.20 31.41 27.61 23.79 19.96 16.11 12.25 8.37 4.49 0.58 -11.28 -24.57 -37.90 -51.27 -64.68 -78.13 -91.62 -105.15 -118.71 -132.31 -145.95 -159.62 -173.32 -187.06 -200.83 -214.63 -228.46 -242.32 -256.21 -270.13 -284.08 -298.05 -312.05 -326.08 -340.14 -354.22 -368.32 -382.45 -396.61 -410.78 -424.98 -439.20 -453.45 -467.71 -482.00 -496.31 -510.64 -524.99 -539.35 -553.74 -568.15 -582.57 -597.01 -611.47 -625.95 -640.45 -654.96 -669.49 -684.03 -698.59 -713.17 -727.76 -742.37 -756.99 -771.62 -786.27 -800.94 -815.61 -830.30 -845.01 -859.73 -874.46 -889.20 -903.96 -918.72 -933.50 -948.30 -963.10 -977.91 -992.74 -1007.57 -1022.42 -1037.28 -1052.15 -1067.03 -1081.92 -1096.82 -1111.73 -1126.64 -1141.57 -1156.51 -1171.46 -1186.41 -1201.38 -1216.35 -1231.33 -1246.33 -1261.32 -1276.33 -1291.35 -1306.37 -1321.40 -1336.44 -1351.49 -1366.54 -1381.61 -1396.68 -1411.75 -1426.84 -1441.93 -1457.03 -1472.13 -1487.24 -1502.36 -1517.48 -1532.62 -1547.75 -1562.90 -1578.05 -1593.20 -1608.36 -1623.53 -1638.71 -1653.89 -1669.07 -1684.26 -1699.46 -1714.66 -1729.87 -1745.08 -1760.30 -1775.52 -1790.75 -1805.98 -1821.22 -1836.46
-574.65 -560.29 -545.95 -531.62 -517.32 -503.03 -488.77 -474.52 -460.30 -446.10 -431.93 -417.78 -403.65 -389.54 -375.46 -361.40 -347.37 -333.37 -319.39 -305.44 -291.52 -277.62 -263.76 -249.92 -236.11 -222.34 -208.59 -194.88 -181.20 -167.56 -153.95 -140.37 -126.83 -113.33 -99.86 -86.43 -73.05 -59.70 -46.39 -33.13 -19.90 -6.73 1.89 5.76 9.62 13.46 17.29 21.10 24.89 28.67 32.44 36.19 39.92 43.63 47.33 51.01 54.66 58.30 61.92 65.53 69.11 72.66 76.20 79.72 83.21 86.68 90.12 93.54 96.94 100.31 103.65 106.97 110.26 113.52 116.75 119.95 123.12 126.26 129.37 132.44 135.48 138.49 141.46 144.39 147.28 150.14 152.96 155.73 158.47 161.16 163.81 166.42 168.98 171.49 173.96 176.38 178.75 181.06 183.33 185.54 187.70 189.80 191.85 193.84 195.77 197.64 199.45 201.19 202.88 204.50 206.05 207.54 208.96 210.31 211.60 212.81 213.95 215.02 216.02 216.94 217.79 218.57 219.26 219.89 220.43 220.90 221.29 221.61 221.84 222.00 222.08 222.08 222.00 221.84 221.61 221.29 220.90 220.43 219.89 219.26 218.57 217.79 216.94 216.02 215.02 213.95 212.81 211.60 210.31 208.96 207.54 206.05 204.50 202.88 201.19 199.45 197.64 195.77 193.84 191.85 189.80 187.70 185.54 183.33 181.06 178.75 176.38 173.96 171.49 168.98 166.42 163.81 161.16 158.47 155.73 152.96 150.14 147.28 144.39 141.46 138.49 135.48 132.44 129.37 126.26 123.12 119.95 116.75 113.52 110.26 106.97 103.65 100.31 96.94 93.54 90.12 86.68 83.21 79.72 76.20 72.66 69.11 65.53 61.92 58.30 54.66 51.01 47.33 43.63 39.92 36.19 32.44 28.67 24.89 21.10 17.29 13.46 9.62 5.76 1.89 -6.73 -19.90 -33.13 -46.39 -59.70 -73.05 -86.43 -99.86 -113.33 -126.83 -140.37 -153.95 -167.56 -181.20 -194.88 -208.59 -222.34 -236.11 -249.92 -263.76 -277.62 -291.52 -305.44 -319.39 -333.37 -347.37 -361.40 -375.46 -389.54 -403.65 -417.78 -431.93 -446.10 -460.30 -474.52 -488.77 -503.03 -517.32 -531.62 -545.95 -560.29 -574.65 -589.04 -603.44 -617.86 -632.30 -646.75 -661.23 -675.72 -690.22 -704.75 -719.28 -733.84 -748.41 -762.99 -777.59 -792.21 -806.84 -821.48 -836.14 -850.81 -865.49 -880.19 -894.90 -909.62 -924.36 -939.11 -953.87 -968.64 -983.42 -998.22 -1013.03 -1027.84 -1042.67 -1057.51 -1072.36 -1087.22 -1102.09 -1116.97 -1131.87 -1146.77 -1161.68 -1176.60 -1191.53 -1206.46 -1221.41 -1236.37 -1251.33 -1266.31 -1281.29 -1296.28 -1311.28 -1326.29 -1341.30 -1356.33 -1371.36 -1386.39 -1401.44 -1416.49 -1431.56 -1446.62 -1461.70 -1476.78 -1491.87 -1506.97 -1522.07 -1537.18 -1552.30 -1567.42 -1582.55 -1597.68 -1612.82 -1627.97 -1643.13 -1658.29 -1673.45 -1688.62 -1703.80 -1718.98 -1734.17 -1749.36 -1764.56 -1779.77 -1794.98 -1810.19 -1825.41 -1840.64
-581.25 -566.93 -552.63 -538.35 -524.09 -509.84 -495.63 -481.43 -467.25 -453.10 -438.97 -424.86 -410.78 -396.72 -382.69 -368.69 -354.71 -340.75 -326.82 -312.93 -299.05 -285.21 -271.40 -257.62 -243.87 -230.15 -216.46 -202.80 -189.18 -175.60 -162.04 -148.53 -135.05 -121.61 -108.20 -94.84 -81.51 -68.23 -54.99 -41.79 -28.63 -15.52 -2.46 3.12 6.96 10.78 14.58 18.37 22.15 25.91 29.65 33.37 37.08 40.77 44.44 48.10 51.73 55.35 58.95 62.52 66.08 69.61 73.12 76.61 80.08 83.52 86.94 90.34 93.71 97.05 100.36 103.65 106.91 110.15 113.35 116.52 119.66 122.77 125.85 128.90 131.91 134.88 137.82 140.73 143.59 146.42 149.21 151.95 154.66 157.32 159.94 162.52 165.05 167.53 169.97 172.36 174.70 176.99 179.22 181.41 183.54 185.61 187.63 189.59 191.50 193.34 195.12 196.85 198.51 200.10 201.63 203.10 204.50 205.83 207.09 208.29 209.41 210.47 211.45 212.36 213.19 213.95 214.64 215.25 215.79 216.25 216.63 216.94 217.17 217.33 217.41 217.41 217.33 217.17 216.94 216.63 216.25 215.79 215.25 214.64 213.95 213.19 212.36 211.45 210.47 209.41 208.29 207.09 205.83 204.50 203.10 201.63 200.10 198.51 196.85 195.12 193.34 191.50 189.59 187.63 185.61 183.54 181.41 179.22 176.99 174.70 172.36 169.97 167.53 165.05 162.52 159.94 157.32 154.66 151.95 149.21 146.42 143.59 140.73 137.82 134.88 131.91 128.90 125.85 122.77 119.66 116.52 113.35 110.15 106.91 103.65 100.36 97.05 93.71 90.34 86.94 83.52 80.08 76.61 73.12 69.61 66.08 62.52 58.95 55.35 51.73 48.10 44.44 40.77 37.08 33.37 29.65 25.91 22.15 18.37 14.58 10.78 6.96 3.12 -2.46 -15.52 -28.63 -41.79 -54.99 -68.23 -81.51 -94.84 -108.20 -121.61 -135.05 -148.53 -162.04 -175.60 -189.18 -202.80 -216.46 -230.15 -243.87 -257.62 -271.40 -285.21 -299.05 -312.93 -326.82 -340.75 -354.71 -368.69 -382.69 -396.72 -410.78 -424.86 -438.97 -453.10 -467.25 -481.43 -495.63 -509.84 -524.09 -538.35 -552.63 -566.93 -581.25 -595.60 -609.96 -624.34 -638.73 -653.15 -667.58 -682.03 -696.50 -710.99 -725.49 -740.01 -754.54 -769.09 -783.65 -798.23 -812.82 -827.43 -842.06 -856.69 -871.34 -886.01 -900.68 -915.37 -930.08 -944.79 -959.52 -974.26 -989.02 -1003.78 -1018.56 -1033.34 -1048.14 -1062.95 -1077.77 -1092.61 -1107.45 -1122.30 -1137.16 -1152.04 -1166.92 -1181.81 -1196.72 -1211.63 -1226.55 -1241.48 -1256.42 -1271.37 -1286.32 -1301.29 -1316.26 -1331.25 -1346.24 -1361.23 -1376.24 -1391.26 -1406.28 -1421.31 -1436.35 -1451.39 -1466.45 -1481.50 -1496.57 -1511.65 -1526.73 -1541.81 -1556.91 -1572.01 -1587.12 -1602.23 -1617.35 -1632.48 -1647.61 -1662.75 -1677.90 -1693.05 -1708.21 -1723.37 -1738.54 -1753.71 -1768.89 -1784.08 -1799.27 -1814.46 -1829.67 -1844.87
-587.94 -573.66 -559.40 -545.16 -530.95 -516.75 -502.58 -488.42 -474.29 -460.19 -446.10 -432.05 -418.01 -404.00 -390.02 -376.06 -362.13 -348.23 -334.35 -320.51 -306.69 -292.90 -279.14 -265.41 -251.72 -238.05 -224.42 -210.83 -197.26 -183.73 -170.24 -156.78 -143.37 -129.99 -116.64 -103.34 -90.08 -76.86 -63.68 -50.55 -37.46 -24.42 -11.42 0.45 4.26 8.06 11.85 15.62 19.37 23.11 26.83 30.53 34.22 37.88 41.53 45.16 48.78 52.37 55.94 59.49 63.02 66.53 70.02 73.48 76.92 80.34 83.73 87.10 90.44 93.76 97.05 100.31 103.54 106.75 109.92 113.07 116.18 119.26 122.31 125.33 128.31 131.26 134.17 137.04 139.88 142.67 145.43 148.15 150.83 153.46 156.05 158.60 161.10 163.55 165.96 168.32 170.63 172.89 175.10 177.26 179.36 181.41 183.40 185.33 187.21 189.03 190.79 192.49 194.12 195.70 197.21 198.65 200.03 201.34 202.59 203.76 204.87 205.90 206.87 207.77 208.59 209.34 210.01 210.62 211.14 211.60 211.98 212.28 212.51 212.66 212.73 212.73 212.66 212.51 212.28 211.98 211.60 211.14 210.62 210.01 209.34 208.59 207.77 206.87 205.90 204.87 203.76 202.59 201.34 200.03 198.65 197.21 195.70 194.12 192.49 190.79 189.03 187.21 185.33 183.40 181.41 179.36 177.26 175.10 172.89 170.63 168.32 165.96 163.55 161.10 158.60 156.05 153.46 150.83 148.15 145.43 142.67 139.88 137.04 134.17 131.26 128.31 125.33 122.31 119.26 116.18 113.07 109.92 106.75 103.54 100.31 97.05 93.76 90.44 87.10 83.73 80.34 76.92 73.48 70.02 66.53 63.02 59.49 55.94 52.37 48.78 45.16 41.53 37.88 34.22 30.53 26.83 23.11 19.37 15.62 11.85 8.06 4.26 0.45 -11.42 -24.42 -37.46 -50.55 -63.68 -76.86 -90.08 -103.34 -116.64 -129.99 -143.37 -156.78 -170.24 -183.73 -197.26 -210.83 -224.42 -238.05 -251.72 -265.41 -279.14 -292.90 -306.69 -320.51 -334.35 -348.23 -362.13 -376.06 -390.02 -404.00 -418.01 -432.05 -446.10 -460.19 -474.29 -488.42 -502.58 -516.75 -530.95 -545.16 -559.40 -573.66 -587.94 -602.24 -616.56 -630.90 -645.26 -659.63 -674.03 -688.44 -702.87 -717.32 -731.78 -746.26 -760.76 -775.27 -789.80 -804.34 -818.90 -833.47 -848.06 -862.66 -877.28 -891.91 -906.55 -921.21 -935.88 -950.56 -965.26 -979.97 -994.69 -1009.42 -1024.17 -1038.93 -1053.70 -1068.48 -1083.27 -1098.07 -1112.88 -1127.71 -1142.54 -1157.39 -1172.24 -1187.11 -1201.98 -1216.87 -1231.76 -1246.66 -1261.58 -1276.50 -1291.43 -1306.37 -1321.32 -1336.28 -1351.24 -1366.22 -1381.20 -1396.19 -1411.19 -1426.20 -1441.21 -1456.23 -1471.26 -1486.30 -1501.34 -1516.40 -1531.45 -1546.52 -1561.59 -1576.67 -1591.76 -1606.85 -1621.95 -1637.06 -1652.17 -1667.29 -1682.41 -1697.54 -1712.68 -1727.82 -1742.97 -1758.13 -1773.29 -1788.46 -1803.63 -1818.80 -1833.99 -1849.18
-594.72 -580.49 -566.27 -552.07 -537.90 -523.75 -509.62 -495.51 -481.43 -467.37 -453.33 -439.32 -425.34 -411.38 -397.44 -383.53 -369.65 -355.80 -341.98 -328.18 -314.42 -300.68 -286.98 -273.31 -259.67 -246.06 -232.48 -218.94 -205.44 -191.97 -178.54 -165.14 -151.78 -138.46 -125.18 -111.94 -98.75 -85.59 -72.48 -59.41 -46.39 -33.42 -20.49 -7.61 1.54 5.32 9.09 12.83 16.56 20.28 23.98 27.66 31.32 34.97 38.59 42.20 45.79 49.36 52.90 56.43 59.94 63.42 66.88 70.32 73.74 77.13 80.50 83.84 87.15 90.44 93.71 96.94 100.15 103.32 106.47 109.59 112.67 115.73 118.75 121.74 124.69 127.61 130.49 133.33 136.14 138.91 141.64 144.33 146.97 149.58 152.14 154.66 157.13 159.56 161.94 164.27 166.55 168.78 170.96 173.09 175.17 177.19 179.15 181.06 182.92 184.71 186.45 188.12 189.73 191.28 192.77 194.19 195.55 196.85 198.07 199.23 200.32 201.34 202.29 203.17 203.98 204.72 205.39 205.98 206.50 206.95 207.32 207.62 207.84 207.99 208.06 208.06 207.99 207.84 207.62 207.32 206.95 206.50 205.98 205.39 204.72 203.98 203.17 202.29 201.34 200.32 199.23 198.07 196.85 195.55 194.19 192.77 191.28 189.73 188.12 186.45 184.71 182.92 181.06 179.15 177.19 175.17 173.09 170.96 168.78 166.55 164.27 161.94 159.56 157.13 154.66 152.14 149.58 146.97 144.33 141.64 138.91 136.14 133.33 130.49 127.61 124.69 121.74 118.75 115.73 112.67 109.59 106.47 103.32 100.15 96.94 93.71 90.44 87.15 83.84 80.50 77.13 73.74 70.32 66.88 63.42 59.94 56.43 52.90 49.36 45.79 42.20 38.59 34.97 31.32 27.66 23.98 20.28 16.56 12.83 9.09 5.32 1.54 -7.61 -20.49 -33.42 -46.39 -59.41 -72.48 -85.59 -98.75 -111.94 -125.18 -138.46 -151.78 -165.14 -178.54 -191.97 -205.44 -218.94 -232.48 -246.06 -259.67 -273.31 -286.98 -300.68 -314.42 -328.18 -341.98 -355.80 -369.65 -383.53 -397.44 -411.38 -425.34 -439.32 -453.33 -467.37 -481.43 -495.51 -509.62 -523.75 -537.90 -552.07 -566.27 -580.49 -594.72 -608.98 -623.26 -637.56 -651.87 -666.21 -680.56 -694.93 -709.32 -723.73 -738.16 -752.60 -767.06 -781.53 -796.02 -810.53 -825.05 -839.59 -854.14 -868.71 -883.29 -897.89 -912.50 -927.13 -941.76 -956.41 -971.08 -985.76 -1000.45 -1015.15 -1029.86 -1044.59 -1059.33 -1074.08 -1088.84 -1103.61 -1118.40 -1133.19 -1148.00 -1162.81 -1177.64 -1192.48 -1207.33 -1222.18 -1237.05 -1251.93 -1266.81 -1281.71 -1296.61 -1311.53 -1326.45 -1341.38 -1356.33 -1371.27 -1386.23 -1401.20 -1416.17 -1431.16 -1446.15 -1461.15 -1476.15 -1491.17 -1506.19 -1521.22 -1536.25 -1551.30 -1566.35 -1581.40 -1596.47 -1611.54 -1626.62 -1641.70 -1656.79 -1671.89 -1687.00 -1702.11 -1717.22 -1732.35 -1747.48 -1762.61 -1777.75 -1792.90 -1808.05 -1823.21 -1838.37 -1853.54
-601.59 -587.40 -573.22 -559.07 -544.94 -530.83 -516.75 -502.69 -488.65 -474.64 -460.65 -446.69 -432.75 -418.84 -404.96 -391.10 -377.27 -363.47 -349.70 -335.96 -322.24 -308.56 -294.91 -281.29 -267.71 -254.16 -240.64 -227.16 -213.71 -200.30 -186.93 -173.59 -160.29 -147.04 -133.82 -120.64 -107.51 -94.42 -81.37 -68.37 -55.42 -42.51 -29.65 -16.84 -4.08 2.55 6.29 10.02 13.73 17.42 21.10 24.76 28.40 32.02 35.62 39.21 42.77 46.32 49.84 53.34 56.82 60.28 63.72 67.14 70.53 73.89 77.23 80.55 83.84 87.10 90.34 93.54 96.72 99.87 102.99 106.08 109.14 112.17 115.16 118.12 121.04 123.93 126.79 129.60 132.38 135.12 137.82 140.48 143.10 145.68 148.21 150.70 153.15 155.54 157.90 160.20 162.45 164.66 166.81 168.91 170.96 172.96 174.90 176.78 178.61 180.38 182.09 183.74 185.33 186.86 188.33 189.73 191.07 192.35 193.55 194.69 195.77 196.77 197.71 198.58 199.38 200.10 200.76 201.34 201.85 202.29 202.66 202.95 203.17 203.32 203.39 203.39 203.32 203.17 202.95 202.66 202.29 201.85 201.34 200.76 200.10 199.38 198.58 197.71 196.77 195.77 194.69 193.55 192.35 191.07 189.73 188.33 186.86 185.33 183.74 182.09 180.38 178.61 176.78 174.90 172.96 170.96 168.91 166.81 164.66 162.45 160.20 157.90 155.54 153.15 150.70 148.21 145.68 143.10 140.48 137.82 135.12 132.38 129.60 126.79 123.93 121.04 118.12 115.16 112.17 109.14 106.08 102.99 99.87 96.72 93.54 90.34 87.10 83.84 80.55 77.23 73.89 70.53 67.14 63.72 60.28 56.82 53.34 49.84 46.32 42.77 39.21 35.62 32.02 28.40 24.76 21.10 17.42 13.73 10.02 6.29 2.55 -4.08 -16.84 -29.65 -42.51 -55.42 -68.37 -81.37 -94.42 -107.51 -120.64 -133.82 -147.04 -160.29 -173.59 -186.93 -200.30 -213.71 -227.16 -240.64 -254.16 -267.71 -281.29 -294.91 -308.56 -322.24 -335.96 -349.70 -363.47 -377.27 -391.10 -404.96 -418.84 -432.75 -446.69 -460.65 -474.64 -488.65 -502.69 -516.75 -530.83 -544.94 -559.07 -573.22 -587.40 -601.59 -615.81 -630.04 -644.30 -658.57 -672.87 -687.18 -701.51 -715.86 -730.23 -744.62 -759.02 -773.45 -787.88 -802.34 -816.81 -831.29 -845.80 -860.31 -874.85 -889.39 -903.96 -918.53 -933.12 -947.73 -962.35 -976.98 -991.62 -1006.28 -1020.95 -1035.63 -1050.33 -1065.04 -1079.76 -1094.49 -1109.23 -1123.99 -1138.75 -1153.53 -1168.32 -1183.12 -1197.92 -1212.74 -1227.57 -1242.41 -1257.26 -1272.12 -1286.99 -1301.87 -1316.76 -1331.66 -1346.56 -1361.48 -1376.40 -1391.34 -1406.28 -1421.23 -1436.19 -1451.15 -1466.13 -1481.11 -1496.10 -1511.10 -1526.11 -1541.12 -1556.14 -1571.17 -1586.20 -1601.25 -1616.30 -1631.35 -1646.42 -1661.49 -1676.56 -1691.65 -1706.74 -1721.83 -1736.94 -1752.05 -1767.16 -1782.28 -1797.41 -1812.54 -1827.68 -1842.83 -1857.98
-608.55 -594.39 -580.27 -566.16 -552.07 -538.01 -523.97 -509.96 -495.97 -482.00 -468.06 -454.15 -440.26 -426.40 -412.56 -398.76 -384.98 -371.23 -357.51 -343.82 -330.16 -316.53 -302.94 -289.38 -275.85 -262.35 -248.89 -235.47 -222.08 -208.72 -195.41 -182.14 -168.90 -155.70 -142.55 -129.44 -116.37 -103.34 -90.36 -77.43 -64.54 -51.70 -38.91 -26.16 -13.47 -0.84 3.47 7.18 10.87 14.54 18.19 21.83 25.45 29.04 32.63 36.19 39.73 43.25 46.75 50.23 53.69 57.12 60.53 63.92 67.29 70.63 73.94 77.23 80.50 83.73 86.94 90.12 93.28 96.40 99.49 102.55 105.58 108.58 111.55 114.48 117.38 120.24 123.06 125.85 128.60 131.32 133.99 136.62 139.21 141.76 144.27 146.73 149.14 151.51 153.84 156.11 158.34 160.52 162.65 164.72 166.75 168.72 170.63 172.49 174.30 176.04 177.73 179.36 180.93 182.44 183.88 185.26 186.58 187.84 189.03 190.15 191.21 192.20 193.13 193.98 194.77 195.48 196.13 196.70 197.21 197.64 198.00 198.29 198.51 198.65 198.72 198.72 198.65 198.51 198.29 198.00 197.64 197.21 196.70 196.13 195.48 194.77 193.98 193.13 192.20 191.21 190.15 189.03 187.84 186.58 185.26 183.88 182.44 180.93 179.36 177.73 176.04 174.30 172.49 170.63 168.72 166.75 164.72 162.65 160.52 158.34 156.11 153.84 151.51 149.14 146.73 144.27 141.76 139.21 136.62 133.99 131.32 128.60 125.85 123.06 120.24 117.38 114.48 111.55 108.58 105.58 102.55 99.49 96.40 93.28 90.12 86.94 83.73 80.50 77.23 73.94 70.63 67.29 63.92 60.53 57.12 53.69 50.23 46.75 43.25 39.73 36.19 32.63 29.04 25.45 21.83 18.19 14.54 10.87 7.18 3.47 -0.84 -13.47 -26.16 -38.91 -51.70 -64.54 -77.43 -90.36 -103.34 -116.37 -129.44 -142.55 -155.70 -168.90 -182.14 -195.41 -208.72 -222.08 -235.47 -248.89 -262.35 -275.85 -289.38 -302.94 -316.53 -330.16 -343.82 -357.51 -371.23 -384.98 -398.76 -412.56 -426.40 -440.26 -454.15 -468.06 -482.00 -495.97 -509.96 -523.97 -538.01 -552.07 -566.16 -580.27 -594.39 -608.55 -622.72 -636.91 -651.13 -665.36 -679.61 -693.89 -708.18 -722.49 -736.82 -751.17 -765.53 -779.92 -794.32 -808.73 -823.17 -837.62 -852.08 -866.57 -881.06 -895.58 -910.10 -924.65 -939.20 -953.77 -968.36 -982.96 -997.57 -1012.19 -1026.83 -1041.49 -1056.15 -1070.83 -1085.52 -1100.22 -1114.93 -1129.65 -1144.39 -1159.14 -1173.90 -1188.67 -1203.45 -1218.24 -1233.04 -1247.85 -1262.68 -1277.51 -1292.35 -1307.20 -1322.07 -1336.94 -1351.82 -1366.71 -1381.61 -1396.51 -1411.43 -1426.36 -1441.29 -1456.23 -1471.18 -1486.14 -1501.11 -1516.08 -1531.07 -1546.06 -1561.06 -1576.06 -1591.07 -1606.09 -1621.12 -1636.16 -1651.20 -1666.25 -1681.30 -1696.37 -1711.44 -1726.51 -1741.59 -1756.68 -1771.78 -1786.88 -1801.98 -1817.10 -1832.22 -1847.34 -1862.47
-615.59 -601.48 -587.40 -573.33 -559.29 -545.28 -531.28 -517.32 -503.37 -489.45 -475.56 -461.70 -447.86 -434.04 -420.26 -406.50 -392.78 -379.08 -365.41 -351.78 -338.17 -324.60 -311.06 -297.55 -284.08 -270.64 -257.23 -243.87 -230.54 -217.24 -203.99 -190.78 -177.60 -164.47 -151.37 -138.33 -125.32 -112.36 -99.44 -86.57 -73.75 -60.98 -48.26 -35.59 -22.96 -10.40 0.63 4.31 7.98 11.62 15.26 18.87 22.47 26.04 29.60 33.14 36.66 40.15 43.63 47.09 50.52 53.93 57.32 60.68 64.02 67.34 70.63 73.89 77.13 80.34 83.52 86.68 89.80 92.90 95.97 99.00 102.01 104.98 107.91 110.82 113.69 116.52 119.32 122.08 124.80 127.49 130.13 132.74 135.30 137.82 140.30 142.74 145.12 147.47 149.77 152.02 154.22 156.37 158.47 160.52 162.52 164.46 166.35 168.19 169.97 171.69 173.36 174.97 176.51 178.00 179.43 180.79 182.09 183.33 184.50 185.61 186.65 187.63 188.54 189.38 190.15 190.86 191.50 192.06 192.56 192.98 193.34 193.62 193.84 193.98 194.05 194.05 193.98 193.84 193.62 193.34 192.98 192.56 192.06 191.50 190.86 190.15 189.38 188.54 187.63 186.65 185.61 184.50 183.33 182.09 180.79 179.43 178.00 176.51 174.97 173.36 171.69 169.97 168.19 166.35 164.46 162.52 160.52 158.47 156.37 154.22 152.02 149.77 147.47 145.12 142.74 140.30 137.82 135.30 132.74 130.13 127.49 124.80 122.08 119.32 116.52 113.69 110.82 107.91 104.98 102.01 99.00 95.97 92.90 89.80 86.68 83.52 80.34 77.13 73.89 70.63 67.34 64.02 60.68 57.32 53.93 50.52 47.09 43.63 40.15 36.66 33.14 29.60 26.04 22.47 18.87 15.26 11.62 7.98 4.31 0.63 -10.40 -22.96 -35.59 -48.26 -60.98 -73.75 -86.57 -99.44 -112.36 -125.32 -138.33 -151.37 -164.47 -177.60 -190.78 -203.99 -217.24 -230.54 -243.87 -257.23 -270.64 -284.08 -297.55 -311.06 -324.60 -338.17 -351.78 -365.41 -379.08 -392.78 -406.50 -420.26 -434.04 -447.86 -461.70 -475.56 -489.45 -503.37 -517.32 -531.28 -545.28 -559.29 -573.33 -587.40 -601.48 -615.59 -629.72 -643.87 -658.04 -672.23 -686.45 -700.68 -714.93 -729.20 -743.49 -757.80 -772.13 -786.47 -800.84 -815.22 -829.61 -844.03 -858.45 -872.90 -887.36 -901.84 -916.33 -930.84 -945.36 -959.90 -974.45 -989.02 -1003.60 -1018.19 -1032.80 -1047.41 -1062.05 -1076.69 -1091.35 -1106.02 -1120.70 -1135.40 -1150.11 -1164.82 -1179.55 -1194.29 -1209.05 -1223.81 -1238.58 -1253.37 -1268.16 -1282.97 -1297.78 -1312.61 -1327.44 -1342.29 -1357.14 -1372.01 -1386.88 -1401.76 -1416.66 -1431.56 -1446.46 -1461.38 -1476.31 -1491.24 -1506.19 -1521.14 -1536.10 -1551.06 -1566.04 -1581.02 -1596.01 -1611.01 -1626.02 -1641.03 -1656.05 -1671.08 -1686.11 -1701.15 -1716.20 -1731.25 -1746.31 -1761.38 -1776.46 -1791.54 -1806.63 -1821.72 -1836.82 -1851.92 -1867.04
-622.72 -608.65 -594.61 -580.59 -566.60 -552.63 -538.68 -524.76 -510.86 -496.99 -483.15 -469.33 -455.54 -441.78 -428.05 -414.34 -400.67 -387.02 -373.41 -359.82 -346.27 -332.75 -319.27 -305.81 -292.40 -279.02 -265.67 -252.36 -239.09 -225.86 -212.66 -199.51 -186.39 -173.32 -160.29 -147.31 -134.37 -121.47 -108.62 -95.82 -83.06 -70.36 -57.70 -45.10 -32.55 -20.05 -7.61 1.41 5.06 8.69 12.30 15.89 19.46 23.02 26.55 30.07 33.56 37.03 40.49 43.92 47.33 50.71 54.08 57.42 60.73 64.02 67.29 70.53 73.74 76.92 80.08 83.21 86.31 89.38 92.42 95.43 98.40 101.35 104.26 107.14 109.98 112.79 115.56 118.29 120.99 123.64 126.26 128.84 131.37 133.87 136.32 138.73 141.09 143.41 145.68 147.90 150.08 152.20 154.28 156.31 158.28 160.20 162.07 163.88 165.64 167.34 168.98 170.57 172.09 173.56 174.97 176.31 177.59 178.81 179.97 181.06 182.09 183.05 183.95 184.78 185.54 186.24 186.86 187.42 187.91 188.33 188.68 188.96 189.17 189.31 189.38 189.38 189.31 189.17 188.96 188.68 188.33 187.91 187.42 186.86 186.24 185.54 184.78 183.95 183.05 182.09 181.06 179.97 178.81 177.59 176.31 174.97 173.56 172.09 170.57 168.98 167.34 165.64 163.88 162.07 160.20 158.28 156.31 154.28 152.20 150.08 147.90 145.68 143.41 141.09 138.73 136.32 133.87 131.37 128.84 126.26 123.64 120.99 118.29 115.56 112.79 109.98 107.14 104.26 101.35 98.40 95.43 92.42 89.38 86.31 83.21 80.08 76.92 73.74 70.53 67.29 64.02 60.73 57.42 54.08 50.71 47.33 43.92 40.49 37.03 33.56 30.07 26.55 23.02 19.46 15.89 12.30 8.69 5.06 1.41 -7.61 -20.05 -32.55 -45.10 -57.70 -70.36 -83.06 -95.82 -108.62 -121.47 -134.37 -147.31 -160.29 -173.32 -186.39 -199.51 -212.66 -225.86 -239.09 -252.36 -265.67 -279.02 -292.40 -305.81 -319.27 -332.75 -346.27 -359.82 -373.41 -387.02 -400.67 -414.34 -428.05 -441.78 -455.54 -469.33 -483.15 -496.99 -510.86 -524.76 -538.68 -552.63 -566.60 -580.59 -594.61 -608.65 -622.72 -636.80 -650.91 -665.04 -679.19 -693.36 -707.56 -721.77 -736.00 -750.25 -764.52 -778.81 -793.11 -807.44 -821.78 -836.14 -850.51 -864.91 -879.32 -893.74 -908.18 -922.64 -937.11 -951.60 -966.11 -980.62 -995.15 -1009.70 -1024.26 -1038.84 -1053.42 -1068.02 -1082.64 -1097.26 -1111.90 -1126.56 -1141.22 -1155.90 -1170.59 -1185.29 -1200.00 -1214.72 -1229.45 -1244.20 -1258.96 -1273.72 -1288.50 -1303.29 -1318.09 -1332.90 -1347.71 -1362.54 -1377.38 -1392.23 -1407.08 -1421.95 -1436.83 -1451.71 -1466.60 -1481.50 -1496.42 -1511.33 -1526.26 -1541.20 -1556.14 -1571.09 -1586.05 -1601.02 -1616.00 -1630.98 -1645.97 -1660.97 -1675.97 -1690.98 -1706.00 -1721.03 -1736.06 -1751.10 -1766.15 -1781.20 -1796.26 -1811.33 -1826.40 -1841.48 -1856.57 -1871.66
-629.93 -615.91 -601.92 -587.94 -573.99 -560.07 -546.17 -532.29 -518.45 -504.62 -490.83 -477.06 -463.32 -449.61 -435.92 -422.27 -408.64 -395.05 -381.49 -367.96 -354.46 -341.00 -327.57 -314.17 -300.81 -287.48 -274.20 -260.95 -247.73 -234.56 -221.42 -208.33 -195.28 -182.27 -169.30 -156.38 -143.50 -130.67 -117.89 -105.15 -92.46 -79.82 -67.24 -54.70 -42.22 -29.79 -17.42 -5.11 2.11 5.72 9.31 12.88 16.43 19.96 23.47 26.96 30.44 33.89 37.32 40.72 44.11 47.47 50.81 54.13 57.42 60.68 63.92 67.14 70.32 73.48 76.61 79.72 82.79 85.83 88.85 91.83 94.78 97.70 100.58 103.43 106.25 109.03 111.77 114.48 117.15 119.78 122.37 124.92 127.43 129.90 132.32 134.70 137.04 139.33 141.58 143.77 145.92 148.03 150.08 152.08 154.03 155.92 157.77 159.56 161.29 162.97 164.59 166.16 167.66 169.11 170.50 171.83 173.09 174.30 175.44 176.51 177.53 178.48 179.36 180.18 180.93 181.61 182.23 182.78 183.26 183.67 184.02 184.30 184.50 184.64 184.71 184.71 184.64 184.50 184.30 184.02 183.67 183.26 182.78 182.23 181.61 180.93 180.18 179.36 178.48 177.53 176.51 175.44 174.30 173.09 171.83 170.50 169.11 167.66 166.16 164.59 162.97 161.29 159.56 157.77 155.92 154.03 152.08 150.08 148.03 145.92 143.77 141.58 139.33 137.04 134.70 132.32 129.90 127.43 124.92 122.37 119.78 117.15 114.48 111.77 109.03 106.25 103.43 100.58 97.70 94.78 91.83 88.85 85.83 82.79 79.72 76.61 73.48 70.32 67.14 63.92 60.68 57.42 54.13 50.81 47.47 44.11 40.72 37.32 33.89 30.44 26.96 23.47 19.96 16.43 12.88 9.31 5.72 2.11 -5.11 -17.42 -29.79 -42.22 -54.70 -67.24 -79.82 -92.46 -105.15 -117.89 -130.67 -143.50 -156.38 -169.30 -182.27 -195.28 -208.33 -221.42 -234.56 -247.73 -260.95 -274.20 -287.48 -300.81 -314.17 -327.57 -341.00 -354.46 -367.96 -381.49 -395.05 -408.64 -422.27 -435.92 -449.61 -463.32 -477.06 -490.83 -504.62 -518.45 -532.29 -546.17 -560.07 -573.99 -587.94 -601.92 -615.91 -629.93 -643.98 -658.04 -672.13 -686.24 -700.37 -714.52 -728.69 -742.88 -757.09 -771.32 -785.57 -799.83 -814.12 -828.42 -842.75 -857.08 -871.44 -885.81 -900.20 -914.61 -929.03 -943.47 -957.92 -972.39 -986.87 -1001.37 -1015.88 -1030.41 -1044.95 -1059.51 -1074.08 -1088.66 -1103.25 -1117.86 -1132.48 -1147.12 -1161.76 -1176.42 -1191.09 -1205.77 -1220.47 -1235.17 -1249.89 -1264.62 -1279.36 -1294.11 -1308.87 -1323.64 -1338.42 -1353.21 -1368.01 -1382.82 -1397.65 -1412.48 -1427.32 -1442.17 -1457.03 -1471.89 -1486.77 -1501.66 -1516.55 -1531.45 -1546.37 -1561.29 -1576.21 -1591.15 -1606.09 -1621.05 -1636.01 -1650.98 -1665.95 -1680.93 -1695.92 -1710.92 -1725.93 -1740.94 -1755.96 -1770.98 -1786.02 -1801.06 -1816.10 -1831.15 -1846.21 -1861.28 -1876.35
-637.23 -623.26 -609.31 -595.38 -581.47 -567.59 -553.74 -539.91 -526.11 -512.34 -498.59 -484.87 -471.18 -457.52 -443.89 -430.28 -416.71 -403.17 -389.66 -376.18 -362.74 -349.33 -335.96 -322.62 -309.31 -296.04 -282.81 -269.62 -256.47 -243.35 -230.28 -217.24 -204.25 -191.31 -178.40 -165.54 -152.73 -139.96 -127.24 -114.57 -101.95 -89.38 -76.86 -64.40 -51.98 -39.63 -27.33 -15.08 -2.90 2.73 6.29 9.84 13.37 16.88 20.37 23.84 27.29 30.72 34.12 37.51 40.87 44.21 47.52 50.81 54.08 57.32 60.53 63.72 66.88 70.02 73.12 76.20 79.25 82.27 85.26 88.21 91.14 94.03 96.89 99.71 102.50 105.25 107.97 110.65 113.29 115.90 118.46 120.99 123.47 125.91 128.31 130.66 132.98 135.24 137.46 139.63 141.76 143.84 145.86 147.84 149.77 151.64 153.46 155.23 156.94 158.60 160.20 161.74 163.23 164.66 166.03 167.34 168.59 169.77 170.90 171.96 172.96 173.89 174.76 175.57 176.31 176.99 177.59 178.14 178.61 179.02 179.36 179.63 179.84 179.97 180.04 180.04 179.97 179.84 179.63 179.36 179.02 178.61 178.14 177.59 176.99 176.31 175.57 174.76 173.89 172.96 171.96 170.90 169.77 168.59 167.34 166.03 164.66 163.23 161.74 160.20 158.60 156.94 155.23 153.46 151.64 149.77 147.84 145.86 143.84 141.76 139.63 137.46 135.24 132.98 130.66 128.31 125.91 123.47 120.99 118.46 115.90 113.29 110.65 107.97 105.25 102.50 99.71 96.89 94.03 91.14 88.21 85.26 82.27 79.25 76.20 73.12 70.02 66.88 63.72 60.53 57.32 54.08 50.81 47.52 44.21 40.87 37.51 34.12 30.72 27.29 23.84 20.37 16.88 13.37 9.84 6.29 2.73 -2.90 -15.08 -27.33 -39.63 -51.98 -64.40 -76.86 -89.38 -101.95 -114.57 -127.24 -139.96 -152.73 -165.54 -178.40 -191.31 -204.25 -217.24 -230.28 -243.35 -256.47 -269.62 -282.81 -296.04 -309.31 -322.62 -335.96 -349.33 -362.74 -376.18 -389.66 -403.17 -416.71 -430.28 -443.89 -457.52 -471.18 -484.87 -498.59 -512.34 -526.11 -539.91 -553.74 -567.59 -581.47 -595.38 -609.31 -623.26 -637.23 -651.23 -665.25 -679.30 -693.36 -707.45 -721.56 -735.69 -749.84 -764.01 -778.20 -792.41 -806.64 -820.88 -835.15 -849.43 -863.74 -878.05 -892.39 -906.74 -921.11 -935.50 -949.90 -964.32 -978.75 -993.20 -1007.67 -1022.15 -1036.64 -1051.15 -1065.67 -1080.21 -1094.76 -1109.32 -1123.90 -1138.49 -1153.09 -1167.71 -1182.33 -1196.97 -1211.63 -1226.29 -1240.97 -1255.66 -1270.35 -1285.07 -1299.79 -1314.52 -1329.26 -1344.02 -1358.78 -1373.56 -1388.34 -1403.14 -1417.94 -1432.75 -1447.58 -1462.41 -1477.25 -1492.11 -1506.97 -1521.84 -1536.72 -1551.60 -1566.50 -1581.40 -1596.32 -1611.24 -1626.17 -1641.10 -1656.05 -1671.00 -1685.96 -1700.93 -1715.91 -1730.89 -1745.88 -1760.88 -1775.88 -1790.89 -1805.91 -1820.94 -1835.97 -1851.01 -1866.05 -1881.10
-644.62 -630.69 -616.78 -602.90 -589.04 -575.21 -561.40 -547.62 -533.86 -520.14 -506.44 -492.77 -479.13 -465.52 -451.94 -438.38 -424.86 -411.38 -397.92 -384.50 -371.11 -357.75 -344.43 -331.15 -317.90 -304.69 -291.52 -278.38 -265.29 -252.23 -239.22 -226.25 -213.32 -200.43 -187.59 -174.79 -162.04 -149.34 -136.69 -124.08 -111.53 -99.03 -86.57 -74.18 -61.83 -49.55 -37.32 -25.15 -13.04 -0.98 3.25 6.78 10.29 13.77 17.24 20.69 24.11 27.52 30.90 34.26 37.60 40.91 44.21 47.47 50.71 53.93 57.12 60.28 63.42 66.53 69.61 72.66 75.69 78.68 81.64 84.57 87.47 90.34 93.17 95.97 98.73 101.46 104.15 106.80 109.42 112.00 114.54 117.03 119.49 121.91 124.28 126.61 128.90 131.14 133.33 135.48 137.58 139.63 141.64 143.59 145.49 147.34 149.14 150.89 152.58 154.22 155.80 157.32 158.79 160.20 161.55 162.84 164.07 165.24 166.35 167.40 168.39 169.31 170.17 170.96 171.69 172.36 172.96 173.49 173.96 174.36 174.70 174.97 175.17 175.30 175.37 175.37 175.30 175.17 174.97 174.70 174.36 173.96 173.49 172.96 172.36 171.69 170.96 170.17 169.31 168.39 167.40 166.35 165.24 164.07 162.84 161.55 160.20 158.79 157.32 155.80 154.22 152.58 150.89 149.14 147.34 145.49 143.59 141.64 139.63 137.58 135.48 133.33 131.14 128.90 126.61 124.28 121.91 119.49 117.03 114.54 112.00 109.42 106.80 104.15 101.46 98.73 95.97 93.17 90.34 87.47 84.57 81.64 78.68 75.69 72.66 69.61 66.53 63.42 60.28 57.12 53.93 50.71 47.47 44.21 40.91 37.60 34.26 30.90 27.52 24.11 20.69 17.24 13.77 10.29 6.78 3.25 -0.98 -13.04 -25.15 -37.32 -49.55 -61.83 -74.18 -86.57 -99.03 -111.53 -124.08 -136.69 -149.34 -162.04 -174.79 -187.59 -200.43 -213.32 -226.25 -239.22 -252.23 -265.29 -278.38 -291.52 -304.69 -317.90 -331.15 -344.43 -357.75 -371.11 -384.50 -397.92 -411.38 -424.86 -438.38 -451.94 -465.52 -479.13 -492.77 -506.44 -520.14 -533.86 -547.62 -561.40 -575.21 -589.04 -602.90 -616.78 -630.69 -644.62 -658.57 -672.55 -686.55 -700.58 -714.62 -728.69 -742.78 -756.88 -771.01 -785.16 -799.33 -813.52 -827.73 -841.96 -856.20 -870.47 -884.75 -899.05 -913.36 -927.70 -942.05 -956.41 -970.80 -985.20 -999.61 -1014.04 -1028.49 -1042.95 -1057.42 -1071.91 -1086.41 -1100.93 -1115.46 -1130.01 -1144.57 -1159.14 -1173.72 -1188.32 -1202.93 -1217.55 -1232.19 -1246.83 -1261.49 -1276.16 -1290.85 -1305.54 -1320.24 -1334.96 -1349.68 -1364.42 -1379.17 -1393.93 -1408.70 -1423.47 -1438.26 -1453.06 -1467.87 -1482.68 -1497.51 -1512.35 -1527.19 -1542.05 -1556.91 -1571.78 -1586.66 -1601.55 -1616.45 -1631.35 -1646.27 -1661.19 -1676.12 -1691.06 -1706.00 -1720.96 -1735.92 -1750.89 -1765.86 -1780.84 -1795.83 -1810.83 -1825.84 -1840.85 -1855.87 -1870.89 -1885.92
-652.08 -638.20 -624.34 -610.50 -596.69 -582.90 -569.14 -555.41 -541.70 -528.02 -514.38 -500.75 -487.16 -473.60 -460.07 -446.57 -433.10 -419.67 -406.27 -392.90 -379.56 -366.26 -353.00 -339.77 -326.58 -313.42 -300.31 -287.23 -274.20 -261.20 -248.25 -235.34 -222.47 -209.64 -196.87 -184.13 -171.45 -158.81 -146.22 -133.68 -121.19 -108.76 -96.37 -84.05 -71.77 -59.56 -47.40 -35.30 -23.26 -11.28 0.19 3.69 7.18 10.64 14.09 17.51 20.92 24.30 27.66 30.99 34.31 37.60 40.87 44.11 47.33 50.52 53.69 56.82 59.94 63.02 66.08 69.11 72.10 75.07 78.01 80.91 83.79 86.63 89.43 92.20 94.94 97.64 100.31 102.94 105.53 108.08 110.59 113.07 115.50 117.89 120.24 122.54 124.80 127.02 129.19 131.32 133.39 135.42 137.40 139.33 141.21 143.04 144.82 146.54 148.21 149.83 151.39 152.89 154.34 155.73 157.07 158.34 159.56 160.71 161.81 162.84 163.81 164.72 165.57 166.35 167.07 167.73 168.32 168.85 169.31 169.71 170.04 170.30 170.50 170.63 170.70 170.70 170.63 170.50 170.30 170.04 169.71 169.31 168.85 168.32 167.73 167.07 166.35 165.57 164.72 163.81 162.84 161.81 160.71 159.56 158.34 157.07 155.73 154.34 152.89 151.39 149.83 148.21 146.54 144.82 143.04 141.21 139.33 137.40 135.42 133.39 131.32 129.19 127.02 124.80 122.54 120.24 117.89 115.50 113.07 110.59 108.08 105.53 102.94 100.31 97.64 94.94 92.20 89.43 86.63 83.79 80.91 78.01 75.07 72.10 69.11 66.08 63.02 59.94 56.82 53.69 50.52 47.33 44.11 40.87 37.60 34.31 30.99 27.66 24.30 20.92 17.51 14.09 10.64 7.18 3.69 0.19 -11.28 -23.26 -35.30 -47.40 -59.56 -71.77 -84.05 -96.37 -108.76 -121.19 -133.68 -146.22 -158.81 -171.45 -184.13 -196.87 -209.64 -222.47 -235.34 -248.25 -261.20 -274.20 -287.23 -300.31 -313.42 -326.58 -339.77 -353.00 -366.26 -379.56 -392.90 -406.27 -419.67 -433.10 -446.57 -460.07 -473.60 -487.16 -500.75 -514.38 -528.02 -541.70 -555.41 -569.14 -582.90 -596.69 -610.50 -624.34 -638.20 -652.08 -666.00 -679.93 -693.89 -707.87 -721.87 -735.90 -749.94 -764.01 -778.10 -792.21 -806.34 -820.49 -834.66 -848.84 -863.05 -877.28 -891.52 -905.78 -920.06 -934.36 -948.67 -963.00 -977.35 -991.72 -1006.09 -1020.49 -1034.90 -1049.33 -1063.77 -1078.23 -1092.70 -1107.18 -1121.68 -1136.19 -1150.72 -1165.26 -1179.81 -1194.38 -1208.96 -1223.55 -1238.16 -1252.77 -1267.40 -1282.05 -1296.70 -1311.36 -1326.04 -1340.73 -1355.42 -1370.13 -1384.85 -1399.58 -1414.33 -1429.08 -1443.84 -1458.61 -1473.39 -1488.18 -1502.99 -1517.80 -1532.62 -1547.44 -1562.28 -1577.13 -1591.99 -1606.85 -1621.73 -1636.61 -1651.50 -1666.40 -1681.30 -1696.22 -1711.14 -1726.07 -1741.01 -1755.96 -1770.91 -1785.87 -1800.84 -1815.82 -1830.80 -1845.79 -1860.79 -1875.79 -1890.80
-659.63 -645.79 -631.98 -618.18 -604.42 -590.68 -576.97 -563.28 -549.62 -535.99 -522.39 -508.82 -495.28 -481.77 -468.29 -454.84 -441.43 -428.05 -414.70 -401.38 -388.10 -374.86 -361.65 -348.47 -335.34 -322.24 -309.19 -296.17 -283.19 -270.26 -257.36 -244.51 -231.71 -218.94 -206.23 -193.56 -180.94 -168.36 -155.84 -143.37 -130.94 -118.58 -106.26 -94.00 -81.79 -69.65 -57.56 -45.53 -33.56 -21.65 -9.81 0.58 4.04 7.49 10.91 14.31 17.69 21.05 24.39 27.70 30.99 34.26 37.51 40.72 43.92 47.09 50.23 53.34 56.43 59.49 62.52 65.53 68.50 71.44 74.35 77.23 80.08 82.89 85.68 88.42 91.14 93.81 96.45 99.06 101.62 104.15 106.64 109.09 111.49 113.86 116.18 118.46 120.70 122.89 125.04 127.14 129.19 131.20 133.15 135.06 136.92 138.73 140.48 142.19 143.84 145.43 146.97 148.46 149.89 151.26 152.58 153.84 155.04 156.18 157.26 158.28 159.24 160.14 160.97 161.74 162.45 163.10 163.68 164.20 164.66 165.05 165.38 165.64 165.83 165.96 166.03 166.03 165.96 165.83 165.64 165.38 165.05 164.66 164.20 163.68 163.10 162.45 161.74 160.97 160.14 159.24 158.28 157.26 156.18 155.04 153.84 152.58 151.26 149.89 148.46 146.97 145.43 143.84 142.19 140.48 138.73 136.92 135.06 133.15 131.20 129.19 127.14 125.04 122.89 120.70 118.46 116.18 113.86 111.49 109.09 106.64 104.15 101.62 99.06 96.45 93.81 91.14 88.42 85.68 82.89 80.08 77.23 74.35 71.44 68.50 65.53 62.52 59.49 56.43 53.34 50.23 47.09 43.92 40.72 37.51 34.26 30.99 27.70 24.39 21.05 17.69 14.31 10.91 7.49 4.04 0.58 -9.81 -21.65 -33.56 -45.53 -57.56 -69.65 -81.79 -94.00 -106.26 -118.58 -130.94 -143.37 -155.84 -168.36 -180.94 -193.56 -206.23 -218.94 -231.71 -244.51 -257.36 -270.26 -283.19 -296.17 -309.19 -322.24 -335.34 -348.47 -361.65 -374.86 -388.10 -401.38 -414.70 -428.05 -441.43 -454.84 -468.29 -481.77 -495.28 -508.82 -522.39 -535.99 -549.62 -563.28 -576.97 -590.68 -604.42 -618.18 -631.98 -645.79 -659.63 -673.50 -687.39 -701.31 -715.24 -729.20 -743.19 -757.19 -771.22 -785.26 -799.33 -813.42 -827.53 -841.66 -855.81 -869.98 -884.17 -898.37 -912.60 -926.84 -941.10 -955.38 -969.67 -983.98 -998.31 -1012.66 -1027.02 -1041.39 -1055.79 -1070.19 -1084.62 -1099.05 -1113.51 -1127.97 -1142.45 -1156.95 -1171.46 -1185.98 -1200.52 -1215.06 -1229.63 -1244.20 -1258.79 -1273.39 -1288.00 -1302.62 -1317.26 -1331.91 -1346.56 -1361.23 -1375.92 -1390.61 -1405.31 -1420.03 -1434.75 -1449.49 -1464.23 -1478.99 -1493.75 -1508.53 -1523.31 -1538.11 -1552.91 -1567.72 -1582.55 -1597.38 -1612.22 -1627.07 -1641.93 -1656.79 -1671.67 -1686.55 -1701.45 -1716.35 -1731.25 -1746.17 -1761.09 -1776.03 -1790.96 -1805.91 -1820.87 -1835.83 -1850.80 -1865.77 -1880.76 -1895.75
-667.27 -653.47 -639.70 -625.95 -612.23 -598.54 -584.88 -571.24 -557.63 -544.05 -530.50 -516.98 -503.49 -490.03 -476.60 -463.20 -449.84 -436.51 -423.21 -409.95 -396.72 -383.53 -370.38 -357.27 -344.19 -331.15 -318.15 -305.19 -292.27 -279.40 -266.56 -253.77 -241.03 -228.33 -215.67 -203.07 -190.51 -178.00 -165.54 -153.13 -140.78 -128.48 -116.23 -104.04 -91.90 -79.82 -67.80 -55.85 -43.95 -32.11 -20.34 -8.64 0.89 4.31 7.71 11.09 14.45 17.78 21.10 24.39 27.66 30.90 34.12 37.32 40.49 43.63 46.75 49.84 52.90 55.94 58.95 61.92 64.87 67.79 70.68 73.53 76.36 79.15 81.90 84.62 87.31 89.96 92.58 95.16 97.70 100.20 102.66 105.09 107.47 109.81 112.11 114.37 116.58 118.75 120.87 122.95 124.98 126.96 128.90 130.78 132.62 134.41 136.14 137.82 139.45 141.03 142.55 144.02 145.43 146.79 148.09 149.33 150.51 151.64 152.71 153.71 154.66 155.54 156.37 157.13 157.83 158.47 159.05 159.56 160.01 160.39 160.71 160.97 161.16 161.29 161.36 161.36 161.29 161.16 160.97 160.71 160.39 160.01 159.56 159.05 158.47 157.83 157.13 156.37 155.54 154.66 153.71 152.71 151.64 150.51 149.33 148.09 146.79 145.43 144.02 142.55 141.03 139.45 137.82 136.14 134.41 132.62 130.78 128.90 126.96 124.98 122.95 120.87 118.75 116.58 114.37 112.11 109.81 107.47 105.09 102.66 100.20 97.70 95.16 92.58 89.96 87.31 84.62 81.90 79.15 76.36 73.53 70.68 67.79 64.87 61.92 58.95 55.94 52.90 49.84 46.75 43.63 40.49 37.32 34.12 30.90 27.66 24.39 21.10 17.78 14.45 11.09 7.71 4.31 0.89 -8.64 -20.34 -32.11 -43.95 -55.85 -67.80 -79.82 -91.90 -104.04 -116.23 -128.48 -140.78 -153.13 -165.54 -178.00 -190.51 -203.07 -215.67 -228.33 -241.03 -253.77 -266.56 -279.40 -292.27 -305.19 -318.15 -331.15 -344.19 -357.27 -370.38 -383.53 -396.72 -409.95 -423.21 -436.51 -449.84 -463.20 -476.60 -490.03 -503.49 -516.98 -530.50 -544.05 -557.63 -571.24 -584.88 -598.54 -612.23 -625.95 -639.70 -653.47 -667.27 -681.09 -694.93 -708.80 -722.70 -736.62 -750.56 -764.52 -778.50 -792.51 -806.54 -820.59 -834.66 -848.75 -862.86 -876.99 -891.13 -905.30 -919.49 -933.69 -947.92 -962.16 -976.42 -990.69 -1004.98 -1019.29 -1033.62 -1047.96 -1062.32 -1076.69 -1091.08 -1105.49 -1119.91 -1134.34 -1148.79 -1163.25 -1177.73 -1192.22 -1206.72 -1221.24 -1235.77 -1250.32 -1264.87 -1279.44 -1294.02 -1308.62 -1323.23 -1337.84 -1352.47 -1367.12 -1381.77 -1396.43 -1411.11 -1425.80 -1440.49 -1455.20 -1469.92 -1484.65 -1499.39 -1514.14 -1528.90 -1543.67 -1558.45 -1573.23 -1588.03 -1602.84 -1617.65 -1632.48 -1647.31 -1662.16 -1677.01 -1691.87 -1706.74 -1721.61 -1736.50 -1751.39 -1766.29 -1781.20 -1796.12 -1811.05 -1825.98 -1840.92 -1855.87 -1870.82 -1885.78 -1900.75
