ncols         341
nrows         31
xllcorner     123.36666734
yllcorner     2.60000152
cellsize      0.01666667
NODATA_value  -9999
-1936.89 -1930.26 -1923.68 -1917.15 -1910.68 -1904.27 -1897.91 -1891.61 -1885.36 -1879.17 -1873.04 -1866.96 -1860.94 -1854.98 -1849.08 -1843.23 -1837.45 -1831.72 -1826.06 -1820.45 -1814.90 -1809.42 -1804.00 -1798.63 -1793.33 -1788.09 -1782.92 -1777.80 -1772.75 -1767.76 -1762.84 -1757.98 -1753.19 -1748.46 -1743.79 -1739.19 -1734.66 -1730.19 -1725.79 -1721.45 -1717.18 -1712.98 -1708.85 -1704.78 -1700.78 -1696.85 -1692.99 -1689.20 -1685.48 -1681.83 -1678.25 -1674.73 -1671.29 -1667.92 -1664.62 -1661.39 -1658.23 -1655.15 -1652.13 -1649.19 -1646.32 -1643.52 -1640.80 -1638.15 -1635.57 -1633.07 -1630.63 -1628.28 -1626.00 -1623.79 -1621.65 -1619.59 -1617.61 -1615.70 -1613.86 -1612.11 -1610.42 -1608.81 -1607.28 -1605.82 -1604.44 -1603.14 -1601.91 -1600.76 -1599.68 -1598.68 -1597.76 -1596.91 -1596.14 -1595.45 -1594.83 -1594.30 -1593.83 -1593.45 -1593.14 -1592.91 -1592.75 -1592.68 -1592.68 -1592.75 -1592.91 -1593.14 -1593.45 -1593.83 -1594.30 -1594.83 -1595.45 -1596.14 -1596.91 -1597.76 -1598.68 -1599.68 -1600.76 -1601.91 -1603.14 -1604.44 -1605.82 -1607.28 -1608.81 -1610.42 -1612.11 -1613.86 -1615.70 -1617.61 -1619.59 -1621.65 -1623.79 -1626.00 -1628.28 -1630.63 -1633.07 -1635.57 -1638.15 -1640.80 -1643.52 -1646.32 -1649.19 -1652.13 -1655.15 -1658.23 -1661.39 -1664.62 -1667.92 -1671.29 -1674.73 -1678.25 -1681.83 -1685.48 -1689.20 -1692.99 -1696.85 -1700.78 -1704.78 -1708.85 -1712.98 -1717.18 -1721.45 -1725.79 -1730.19 -1734.66 -1739.19 -1743.79 -1748.46 -1753.19 -1757.98 -1762.84 -1767.76 -1772.75 -1777.80 -1782.92 -1788.09 -1793.33 -1798.63 -1804.00 -1809.42 -1814.90 -1820.45 -1826.06 -1831.72 -1837.45 -1843.23 -1849.08 -1854.98 -1860.94 -1866.96 -1873.04 -1879.17 -1885.36 -1891.61 -1897.91 -1904.27 -1910.68 -1917.15 -1923.68 -1930.26 -1936.89 -1943.57 -1950.31 -1957.11 -1963.95 -1970.85 -1977.80 -1984.80 -1991.85 -1998.95 -2006.10 -2013.31 -2020.56 -2027.86 -2035.21 -2042.61 -2050.06 -2057.56 -2065.10 -2072.69 -2080.33 -2088.02 -2095.75 -2103.52 -2111.35 -2119.22 -2127.13 -2135.09 -2143.09 -2151.14 -2159.23 -2167.36 -2175.54 -2183.76 -2192.02 -2200.32 -2208.67 -2217.05 -2225.48 -2233.95 -2242.46 -2251.01 -2259.60 -2268.23 -2276.90 -2285.60 -2294.35 -2303.13 -2311.96 -2320.82 -2329.71 -2338.65 -2347.62 -2356.63 -2365.67 -2374.75 -2383.87 -2393.02 -2402.21 -2411.43 -2420.69 -2429.98 -2439.30 -2448.66 -2458.06 -2467.48 -2476.94 -2486.43 -2495.96 -2505.51 -2515.10 -2524.72 -2534.37 -2544.06 -2553.77 -2563.51 -2573.29 -2583.09 -2592.93 -2602.79 -2612.69 -2622.61 -2632.57 -2642.55 -2652.56 -2662.60 -2672.66 -2682.76 -2692.88 -2703.03 -2713.21 -2723.41 -2733.64 -2743.90 -2754.18 -2764.49 -2774.83 -2785.19 -2795.58 -2805.99 -2816.43 -2826.89 -2837.38 -2847.89 -2858.43 -2868.99 -2879.58 -2890.18 -2900.82 -2911.47 -2922.15 -2932.85 -2943.58 -2954.32 -2965.09 -2975.88 -2986.70 -2997.53 -3008.39 -3019.27 -3030.17 -3041.09 -3052.04 -3063.00 -3073.99 -3084.99 -3096.02 -3107.06 -3118.13 -3129.22 -3140.32 -3151.45 -3162.59 -3173.76 -3184.94 -3196.14 -3207.36 -3218.60 -3229.86 -3241.14 -3252.44 -3263.75 -3275.08 -3286.43 -3297.80 -3309.18
-1924.16 -1917.50 -1910.89 -1904.34 -1897.84 -1891.40 -1885.01 -1878.68 -1872.41 -1866.19 -1860.03 -1853.93 -1847.88 -1841.90 -1835.97 -1830.10 -1824.28 -1818.53 -1812.84 -1807.21 -1801.64 -1796.13 -1790.68 -1785.29 -1779.96 -1774.70 -1769.50 -1764.36 -1759.29 -1754.28 -1749.33 -1744.45 -1739.63 -1734.88 -1730.19 -1725.56 -1721.01 -1716.52 -1712.10 -1707.74 -1703.45 -1699.23 -1695.07 -1690.99 -1686.97 -1683.02 -1679.14 -1675.33 -1671.59 -1667.92 -1664.32 -1660.79 -1657.33 -1653.94 -1650.62 -1647.38 -1644.20 -1641.10 -1638.07 -1635.11 -1632.23 -1629.42 -1626.68 -1624.02 -1621.42 -1618.91 -1616.46 -1614.09 -1611.80 -1609.58 -1607.43 -1605.36 -1603.37 -1601.45 -1599.60 -1597.84 -1596.14 -1594.53 -1592.99 -1591.52 -1590.13 -1588.82 -1587.59 -1586.43 -1585.35 -1584.34 -1583.41 -1582.56 -1581.79 -1581.09 -1580.47 -1579.93 -1579.47 -1579.08 -1578.77 -1578.54 -1578.38 -1578.30 -1578.30 -1578.38 -1578.54 -1578.77 -1579.08 -1579.47 -1579.93 -1580.47 -1581.09 -1581.79 -1582.56 -1583.41 -1584.34 -1585.35 -1586.43 -1587.59 -1588.82 -1590.13 -1591.52 -1592.99 -1594.53 -1596.14 -1597.84 -1599.60 -1601.45 -1603.37 -1605.36 -1607.43 -1609.58 -1611.80 -1614.09 -1616.46 -1618.91 -1621.42 -1624.02 -1626.68 -1629.42 -1632.23 -1635.11 -1638.07 -1641.10 -1644.20 -1647.38 -1650.62 -1653.94 -1657.33 -1660.79 -1664.32 -1667.92 -1671.59 -1675.33 -1679.14 -1683.02 -1686.97 -1690.99 -1695.07 -1699.23 -1703.45 -1707.74 -1712.10 -1716.52 -1721.01 -1725.56 -1730.19 -1734.88 -1739.63 -1744.45 -1749.33 -1754.28 -1759.29 -1764.36 -1769.50 -1774.70 -1779.96 -1785.29 -1790.68 -1796.13 -1801.64 -1807.21 -1812.84 -1818.53 -1824.28 -1830.10 -1835.97 -1841.90 -1847.88 -1853.93 -1860.03 -1866.19 -1872.41 -1878.68 -1885.01 -1891.40 -1897.84 -1904.34 -1910.89 -1917.50 -1924.16 -1930.87 -1937.64 -1944.46 -1951.33 -1958.26 -1965.24 -1972.27 -1979.35 -1986.48 -1993.66 -2000.89 -2008.17 -2015.50 -2022.88 -2030.31 -2037.79 -2045.32 -2052.89 -2060.51 -2068.18 -2075.89 -2083.65 -2091.46 -2099.31 -2107.21 -2115.16 -2123.14 -2131.18 -2139.25 -2147.37 -2155.53 -2163.74 -2171.99 -2180.28 -2188.62 -2196.99 -2205.41 -2213.86 -2222.36 -2230.90 -2239.48 -2248.10 -2256.76 -2265.46 -2274.19 -2282.97 -2291.78 -2300.64 -2309.53 -2318.45 -2327.42 -2336.42 -2345.46 -2354.53 -2363.64 -2372.79 -2381.97 -2391.18 -2400.43 -2409.72 -2419.04 -2428.39 -2437.78 -2447.20 -2456.66 -2466.15 -2475.67 -2485.22 -2494.80 -2504.42 -2514.07 -2523.75 -2533.46 -2543.20 -2552.97 -2562.78 -2572.61 -2582.47 -2592.37 -2602.29 -2612.24 -2622.22 -2632.23 -2642.27 -2652.34 -2662.43 -2672.55 -2682.70 -2692.88 -2703.09 -2713.32 -2723.57 -2733.86 -2744.17 -2754.51 -2764.87 -2775.26 -2785.67 -2796.11 -2806.58 -2817.07 -2827.58 -2838.12 -2848.68 -2859.27 -2869.88 -2880.51 -2891.17 -2901.85 -2912.56 -2923.28 -2934.03 -2944.81 -2955.60 -2966.42 -2977.26 -2988.12 -2999.00 -3009.90 -3020.83 -3031.78 -3042.74 -3053.73 -3064.74 -3075.77 -3086.82 -3097.89 -3108.98 -3120.09 -3131.22 -3142.37 -3153.54 -3164.73 -3175.94 -3187.16 -3198.41 -3209.67 -3220.95 -3232.25 -3243.57 -3254.91 -3266.26 -3277.64 -3289.03 -3300.43
-1911.44 -1904.75 -1898.12 -1891.54 -1885.01 -1878.54 -1872.13 -1865.77 -1859.47 -1853.23 -1847.04 -1840.91 -1834.84 -1828.82 -1822.87 -1816.97 -1811.13 -1805.35 -1799.63 -1793.98 -1788.38 -1782.84 -1777.37 -1771.96 -1766.61 -1761.32 -1756.09 -1750.93 -1745.83 -1740.80 -1735.83 -1730.92 -1726.08 -1721.30 -1716.59 -1711.95 -1707.37 -1702.86 -1698.41 -1694.03 -1689.72 -1685.48 -1681.31 -1677.20 -1673.16 -1669.19 -1665.29 -1661.47 -1657.71 -1654.02 -1650.40 -1646.85 -1643.37 -1639.97 -1636.63 -1633.37 -1630.18 -1627.06 -1624.02 -1621.04 -1618.14 -1615.32 -1612.56 -1609.89 -1607.28 -1604.75 -1602.29 -1599.91 -1597.61 -1595.37 -1593.22 -1591.14 -1589.13 -1587.20 -1585.35 -1583.57 -1581.87 -1580.24 -1578.69 -1577.22 -1575.82 -1574.50 -1573.26 -1572.10 -1571.01 -1570.00 -1569.07 -1568.21 -1567.43 -1566.73 -1566.11 -1565.57 -1565.10 -1564.71 -1564.40 -1564.16 -1564.01 -1563.93 -1563.93 -1564.01 -1564.16 -1564.40 -1564.71 -1565.10 -1565.57 -1566.11 -1566.73 -1567.43 -1568.21 -1569.07 -1570.00 -1571.01 -1572.10 -1573.26 -1574.50 -1575.82 -1577.22 -1578.69 -1580.24 -1581.87 -1583.57 -1585.35 -1587.20 -1589.13 -1591.14 -1593.22 -1595.37 -1597.61 -1599.91 -1602.29 -1604.75 -1607.28 -1609.89 -1612.56 -1615.32 -1618.14 -1621.04 -1624.02 -1627.06 -1630.18 -1633.37 -1636.63 -1639.97 -1643.37 -1646.85 -1650.40 -1654.02 -1657.71 -1661.47 -1665.29 -1669.19 -1673.16 -1677.20 -1681.31 -1685.48 -1689.72 -1694.03 -1698.41 -1702.86 -1707.37 -1711.95 -1716.59 -1721.30 -1726.08 -1730.92 -1735.83 -1740.80 -1745.83 -1750.93 -1756.09 -1761.32 -1766.61 -1771.96 -1777.37 -1782.84 -1788.38 -1793.98 -1799.63 -1805.35 -1811.13 -1816.97 -1822.87 -1828.82 -1834.84 -1840.91 -1847.04 -1853.23 -1859.47 -1865.77 -1872.13 -1878.54 -1885.01 -1891.54 -1898.12 -1904.75 -1911.44 -1918.18 -1924.98 -1931.83 -1938.73 -1945.69 -1952.69 -1959.75 -1966.86 -1974.02 -1981.23 -1988.49 -1995.80 -2003.16 -2010.57 -2018.03 -2025.54 -2033.09 -2040.70 -2048.35 -2056.05 -2063.79 -2071.58 -2079.42 -2087.30 -2095.23 -2103.20 -2111.22 -2119.28 -2127.39 -2135.54 -2143.73 -2151.97 -2160.25 -2168.57 -2176.93 -2185.33 -2193.78 -2202.27 -2210.80 -2219.37 -2227.98 -2236.62 -2245.31 -2254.04 -2262.81 -2271.61 -2280.46 -2289.34 -2298.26 -2307.21 -2316.21 -2325.24 -2334.31 -2343.41 -2352.55 -2361.72 -2370.93 -2380.18 -2389.46 -2398.77 -2408.12 -2417.51 -2426.92 -2436.37 -2445.86 -2455.37 -2464.92 -2474.51 -2484.12 -2493.77 -2503.44 -2513.15 -2522.89 -2532.66 -2542.46 -2552.29 -2562.16 -2572.05 -2581.97 -2591.92 -2601.90 -2611.91 -2621.94 -2632.01 -2642.10 -2652.23 -2662.38 -2672.55 -2682.76 -2692.99 -2703.25 -2713.53 -2723.85 -2734.18 -2744.55 -2754.94 -2765.35 -2775.79 -2786.26 -2796.75 -2807.27 -2817.81 -2828.37 -2838.96 -2849.57 -2860.21 -2870.87 -2881.55 -2892.26 -2902.99 -2913.74 -2924.52 -2935.32 -2946.14 -2956.98 -2967.84 -2978.73 -2989.64 -3000.57 -3011.52 -3022.49 -3033.48 -3044.49 -3055.53 -3066.58 -3077.66 -3088.75 -3099.87 -3111.00 -3122.15 -3133.33 -3144.52 -3155.73 -3166.96 -3178.21 -3189.48 -3200.77 -3212.07 -3223.40 -3234.74 -3246.10 -3257.48 -3268.87 -3280.29 -3291.72
-1898.74 -1892.02 -1885.36 -1878.75 -1872.20 -1865.70 -1859.26 -1852.87 -1846.55 -1840.27 -1834.06 -1827.90 -1821.80 -1815.76 -1809.78 -1803.85 -1797.99 -1792.18 -1786.44 -1780.76 -1775.13 -1769.57 -1764.07 -1758.63 -1753.26 -1747.95 -1742.70 -1737.51 -1732.39 -1727.33 -1722.33 -1717.40 -1712.54 -1707.74 -1703.01 -1698.34 -1693.74 -1689.20 -1684.74 -1680.34 -1676.00 -1671.74 -1667.55 -1663.42 -1659.36 -1655.37 -1651.45 -1647.60 -1643.83 -1640.12 -1636.48 -1632.91 -1629.42 -1626.00 -1622.64 -1619.36 -1616.16 -1613.02 -1609.96 -1606.97 -1604.06 -1601.22 -1598.45 -1595.76 -1593.14 -1590.60 -1588.13 -1585.73 -1583.41 -1581.17 -1579.00 -1576.91 -1574.89 -1572.95 -1571.09 -1569.30 -1567.59 -1565.96 -1564.40 -1562.92 -1561.51 -1560.19 -1558.94 -1557.77 -1556.68 -1555.66 -1554.72 -1553.86 -1553.08 -1552.38 -1551.75 -1551.20 -1550.73 -1550.34 -1550.03 -1549.79 -1549.64 -1549.56 -1549.56 -1549.64 -1549.79 -1550.03 -1550.34 -1550.73 -1551.20 -1551.75 -1552.38 -1553.08 -1553.86 -1554.72 -1555.66 -1556.68 -1557.77 -1558.94 -1560.19 -1561.51 -1562.92 -1564.40 -1565.96 -1567.59 -1569.30 -1571.09 -1572.95 -1574.89 -1576.91 -1579.00 -1581.17 -1583.41 -1585.73 -1588.13 -1590.60 -1593.14 -1595.76 -1598.45 -1601.22 -1604.06 -1606.97 -1609.96 -1613.02 -1616.16 -1619.36 -1622.64 -1626.00 -1629.42 -1632.91 -1636.48 -1640.12 -1643.83 -1647.60 -1651.45 -1655.37 -1659.36 -1663.42 -1667.55 -1671.74 -1676.00 -1680.34 -1684.74 -1689.20 -1693.74 -1698.34 -1703.01 -1707.74 -1712.54 -1717.40 -1722.33 -1727.33 -1732.39 -1737.51 -1742.70 -1747.95 -1753.26 -1758.63 -1764.07 -1769.57 -1775.13 -1780.76 -1786.44 -1792.18 -1797.99 -1803.85 -1809.78 -1815.76 -1821.80 -1827.90 -1834.06 -1840.27 -1846.55 -1852.87 -1859.26 -1865.70 -1872.20 -1878.75 -1885.36 -1892.02 -1898.74 -1905.51 -1912.34 -1919.22 -1926.15 -1933.13 -1940.16 -1947.25 -1954.39 -1961.58 -1968.82 -1976.11 -1983.45 -1990.84 -1998.28 -2005.77 -2013.31 -2020.89 -2028.52 -2036.20 -2043.93 -2051.71 -2059.53 -2067.39 -2075.31 -2083.26 -2091.27 -2099.31 -2107.41 -2115.54 -2123.72 -2131.95 -2140.21 -2148.52 -2156.87 -2165.27 -2173.70 -2182.18 -2190.70 -2199.25 -2207.85 -2216.49 -2225.17 -2233.89 -2242.65 -2251.44 -2260.28 -2269.15 -2278.06 -2287.01 -2296.00 -2305.02 -2314.08 -2323.18 -2332.31 -2341.48 -2350.69 -2359.93 -2369.20 -2378.51 -2387.86 -2397.23 -2406.65 -2416.09 -2425.57 -2435.08 -2444.63 -2454.21 -2463.82 -2473.46 -2483.14 -2492.84 -2502.58 -2512.35 -2522.15 -2531.98 -2541.84 -2551.73 -2561.65 -2571.60 -2581.57 -2591.58 -2601.62 -2611.68 -2621.78 -2631.90 -2642.05 -2652.23 -2662.43 -2672.66 -2682.92 -2693.21 -2703.52 -2713.86 -2724.22 -2734.62 -2745.03 -2755.47 -2765.94 -2776.43 -2786.95 -2797.49 -2808.06 -2818.65 -2829.27 -2839.91 -2850.57 -2861.26 -2871.97 -2882.70 -2893.45 -2904.23 -2915.03 -2925.86 -2936.70 -2947.57 -2958.46 -2969.37 -2980.30 -2991.26 -3002.23 -3013.23 -3024.25 -3035.29 -3046.34 -3057.42 -3068.52 -3079.64 -3090.78 -3101.94 -3113.12 -3124.31 -3135.53 -3146.77 -3158.02 -3169.29 -3180.59 -3191.90 -3203.23 -3214.57 -3225.94 -3237.32 -3248.72 -3260.14 -3271.58 -3283.03
-1886.06 -1879.31 -1872.62 -1865.98 -1859.40 -1852.87 -1846.40 -1839.99 -1833.63 -1827.33 -1821.09 -1814.90 -1808.78 -1802.71 -1796.70 -1790.75 -1784.86 -1779.03 -1773.26 -1767.55 -1761.90 -1756.31 -1750.78 -1745.32 -1739.92 -1734.58 -1729.31 -1724.10 -1718.95 -1713.87 -1708.85 -1703.89 -1699.01 -1694.18 -1689.43 -1684.74 -1680.11 -1675.56 -1671.07 -1666.65 -1662.29 -1658.01 -1653.79 -1649.64 -1645.56 -1641.56 -1637.62 -1633.75 -1629.95 -1626.22 -1622.57 -1618.98 -1615.47 -1612.03 -1608.66 -1605.36 -1602.14 -1598.99 -1595.91 -1592.91 -1589.98 -1587.12 -1584.34 -1581.63 -1579.00 -1576.44 -1573.96 -1571.55 -1569.22 -1566.97 -1564.79 -1562.68 -1560.66 -1558.71 -1556.83 -1555.03 -1553.31 -1551.67 -1550.11 -1548.62 -1547.21 -1545.87 -1544.62 -1543.44 -1542.34 -1541.32 -1540.38 -1539.51 -1538.73 -1538.02 -1537.39 -1536.84 -1536.36 -1535.97 -1535.66 -1535.42 -1535.26 -1535.18 -1535.18 -1535.26 -1535.42 -1535.66 -1535.97 -1536.36 -1536.84 -1537.39 -1538.02 -1538.73 -1539.51 -1540.38 -1541.32 -1542.34 -1543.44 -1544.62 -1545.87 -1547.21 -1548.62 -1550.11 -1551.67 -1553.31 -1555.03 -1556.83 -1558.71 -1560.66 -1562.68 -1564.79 -1566.97 -1569.22 -1571.55 -1573.96 -1576.44 -1579.00 -1581.63 -1584.34 -1587.12 -1589.98 -1592.91 -1595.91 -1598.99 -1602.14 -1605.36 -1608.66 -1612.03 -1615.47 -1618.98 -1622.57 -1626.22 -1629.95 -1633.75 -1637.62 -1641.56 -1645.56 -1649.64 -1653.79 -1658.01 -1662.29 -1666.65 -1671.07 -1675.56 -1680.11 -1684.74 -1689.43 -1694.18 -1699.01 -1703.89 -1708.85 -1713.87 -1718.95 -1724.10 -1729.31 -1734.58 -1739.92 -1745.32 -1750.78 -1756.31 -1761.90 -1767.55 -1773.26 -1779.03 -1784.86 -1790.75 -1796.70 -1802.71 -1808.78 -1814.90 -1821.09 -1827.33 -1833.63 -1839.99 -1846.40 -1852.87 -1859.40 -1865.98 -1872.62 -1879.31 -1886.06 -1892.86 -1899.71 -1906.62 -1913.58 -1920.59 -1927.65 -1934.77 -1941.94 -1949.16 -1956.43 -1963.75 -1971.12 -1978.54 -1986.01 -1993.52 -2001.09 -2008.71 -2016.37 -2024.08 -2031.84 -2039.64 -2047.49 -2055.39 -2063.33 -2071.32 -2079.35 -2087.43 -2095.55 -2103.72 -2111.93 -2120.18 -2128.48 -2136.82 -2145.20 -2153.62 -2162.09 -2170.60 -2179.14 -2187.73 -2196.36 -2205.03 -2213.74 -2222.49 -2231.28 -2240.10 -2248.97 -2257.87 -2266.81 -2275.79 -2284.81 -2293.86 -2302.95 -2312.08 -2321.24 -2330.44 -2339.67 -2348.94 -2358.25 -2367.59 -2376.96 -2386.37 -2395.81 -2405.29 -2414.80 -2424.34 -2433.91 -2443.52 -2453.16 -2462.83 -2472.53 -2482.27 -2492.03 -2501.83 -2511.66 -2521.52 -2531.41 -2541.32 -2551.27 -2561.25 -2571.26 -2581.29 -2591.36 -2601.45 -2611.57 -2621.72 -2631.90 -2642.10 -2652.34 -2662.60 -2672.88 -2683.20 -2693.54 -2703.90 -2714.29 -2724.71 -2735.16 -2745.63 -2756.12 -2766.64 -2777.18 -2787.75 -2798.35 -2808.96 -2819.60 -2830.27 -2840.96 -2851.67 -2862.41 -2873.17 -2883.95 -2894.75 -2905.58 -2916.43 -2927.30 -2938.19 -2949.11 -2960.04 -2971.00 -2981.98 -2992.98 -3004.00 -3015.04 -3026.11 -3037.19 -3048.29 -3059.42 -3070.56 -3081.72 -3092.90 -3104.11 -3115.33 -3126.57 -3137.83 -3149.11 -3160.40 -3171.72 -3183.05 -3194.41 -3205.78 -3217.16 -3228.57 -3239.99 -3251.44 -3262.89 -3274.37
-1873.39 -1866.61 -1859.89 -1853.23 -1846.62 -1840.06 -1833.56 -1827.12 -1820.74 -1814.41 -1808.14 -1801.92 -1795.77 -1789.67 -1783.64 -1777.66 -1771.74 -1765.88 -1760.09 -1754.35 -1748.67 -1743.06 -1737.51 -1732.02 -1726.59 -1721.23 -1715.93 -1710.69 -1705.52 -1700.41 -1695.37 -1690.39 -1685.48 -1680.63 -1675.85 -1671.14 -1666.50 -1661.92 -1657.40 -1652.96 -1648.59 -1644.28 -1640.04 -1635.87 -1631.77 -1627.75 -1623.79 -1619.90 -1616.08 -1612.33 -1608.66 -1605.06 -1601.53 -1598.07 -1594.68 -1591.37 -1588.13 -1584.96 -1581.87 -1578.85 -1575.90 -1573.03 -1570.23 -1567.51 -1564.87 -1562.29 -1559.80 -1557.38 -1555.03 -1552.77 -1550.58 -1548.46 -1546.42 -1544.46 -1542.58 -1540.77 -1539.04 -1537.39 -1535.81 -1534.32 -1532.90 -1531.56 -1530.30 -1529.11 -1528.01 -1526.98 -1526.03 -1525.16 -1524.37 -1523.66 -1523.03 -1522.47 -1522.00 -1521.60 -1521.29 -1521.05 -1520.89 -1520.81 -1520.81 -1520.89 -1521.05 -1521.29 -1521.60 -1522.00 -1522.47 -1523.03 -1523.66 -1524.37 -1525.16 -1526.03 -1526.98 -1528.01 -1529.11 -1530.30 -1531.56 -1532.90 -1534.32 -1535.81 -1537.39 -1539.04 -1540.77 -1542.58 -1544.46 -1546.42 -1548.46 -1550.58 -1552.77 -1555.03 -1557.38 -1559.80 -1562.29 -1564.87 -1567.51 -1570.23 -1573.03 -1575.90 -1578.85 -1581.87 -1584.96 -1588.13 -1591.37 -1594.68 -1598.07 -1601.53 -1605.06 -1608.66 -1612.33 -1616.08 -1619.90 -1623.79 -1627.75 -1631.77 -1635.87 -1640.04 -1644.28 -1648.59 -1652.96 -1657.40 -1661.92 -1666.50 -1671.14 -1675.85 -1680.63 -1685.48 -1690.39 -1695.37 -1700.41 -1705.52 -1710.69 -1715.93 -1721.23 -1726.59 -1732.02 -1737.51 -1743.06 -1748.67 -1754.35 -1760.09 -1765.88 -1771.74 -1777.66 -1783.64 -1789.67 -1795.77 -1801.92 -1808.14 -1814.41 -1820.74 -1827.12 -1833.56 -1840.06 -1846.62 -1853.23 -1859.89 -1866.61 -1873.39 -1880.22 -1887.10 -1894.03 -1901.02 -1908.07 -1915.16 -1922.31 -1929.50 -1936.75 -1944.05 -1951.40 -1958.80 -1966.25 -1973.75 -1981.30 -1988.90 -1996.54 -2004.23 -2011.97 -2019.76 -2027.60 -2035.48 -2043.40 -2051.38 -2059.40 -2067.46 -2075.57 -2083.72 -2091.92 -2100.16 -2108.44 -2116.77 -2125.14 -2133.55 -2142.00 -2150.50 -2159.04 -2167.61 -2176.23 -2184.89 -2193.59 -2202.33 -2211.11 -2219.93 -2228.79 -2237.68 -2246.61 -2255.59 -2264.59 -2273.64 -2282.72 -2291.84 -2301.00 -2310.19 -2319.42 -2328.69 -2337.99 -2347.32 -2356.69 -2366.09 -2375.53 -2385.00 -2394.51 -2404.04 -2413.62 -2423.22 -2432.86 -2442.52 -2452.23 -2461.96 -2471.72 -2481.52 -2491.34 -2501.20 -2511.09 -2521.00 -2530.95 -2540.93 -2550.93 -2560.97 -2571.03 -2581.12 -2591.25 -2601.39 -2611.57 -2621.78 -2632.01 -2642.27 -2652.56 -2662.87 -2673.21 -2683.58 -2693.97 -2704.39 -2714.84 -2725.31 -2735.80 -2746.33 -2756.87 -2767.44 -2778.04 -2788.66 -2799.30 -2809.97 -2820.66 -2831.38 -2842.12 -2852.88 -2863.66 -2874.47 -2885.30 -2896.15 -2907.03 -2917.92 -2928.84 -2939.78 -2950.74 -2961.73 -2972.73 -2983.76 -2994.80 -3005.87 -3016.96 -3028.06 -3039.19 -3050.34 -3061.51 -3072.69 -3083.90 -3095.13 -3106.37 -3117.64 -3128.92 -3140.22 -3151.54 -3162.88 -3174.24 -3185.62 -3197.01 -3208.42 -3219.85 -3231.30 -3242.76 -3254.24 -3265.74
-1860.73 -1853.93 -1847.18 -1840.48 -1833.85 -1827.26 -1820.74 -1814.26 -1807.85 -1801.49 -1795.20 -1788.95 -1782.77 -1776.65 -1770.58 -1764.58 -1758.63 -1752.75 -1746.93 -1741.16 -1735.46 -1729.82 -1724.24 -1718.73 -1713.28 -1707.89 -1702.56 -1697.30 -1692.10 -1686.97 -1681.90 -1676.90 -1671.97 -1667.10 -1662.29 -1657.56 -1652.89 -1648.28 -1643.75 -1639.28 -1634.89 -1630.56 -1626.30 -1622.11 -1617.99 -1613.94 -1609.96 -1606.05 -1602.22 -1598.45 -1594.76 -1591.14 -1587.59 -1584.11 -1580.70 -1577.37 -1574.12 -1570.93 -1567.82 -1564.79 -1561.83 -1558.94 -1556.13 -1553.39 -1550.73 -1548.15 -1545.64 -1543.20 -1540.85 -1538.57 -1536.36 -1534.24 -1532.19 -1530.22 -1528.32 -1526.51 -1524.77 -1523.11 -1521.52 -1520.02 -1518.59 -1517.24 -1515.97 -1514.78 -1513.67 -1512.64 -1511.69 -1510.81 -1510.02 -1509.30 -1508.67 -1508.11 -1507.63 -1507.23 -1506.91 -1506.68 -1506.52 -1506.44 -1506.44 -1506.52 -1506.68 -1506.91 -1507.23 -1507.63 -1508.11 -1508.67 -1509.30 -1510.02 -1510.81 -1511.69 -1512.64 -1513.67 -1514.78 -1515.97 -1517.24 -1518.59 -1520.02 -1521.52 -1523.11 -1524.77 -1526.51 -1528.32 -1530.22 -1532.19 -1534.24 -1536.36 -1538.57 -1540.85 -1543.20 -1545.64 -1548.15 -1550.73 -1553.39 -1556.13 -1558.94 -1561.83 -1564.79 -1567.82 -1570.93 -1574.12 -1577.37 -1580.70 -1584.11 -1587.59 -1591.14 -1594.76 -1598.45 -1602.22 -1606.05 -1609.96 -1613.94 -1617.99 -1622.11 -1626.30 -1630.56 -1634.89 -1639.28 -1643.75 -1648.28 -1652.89 -1657.56 -1662.29 -1667.10 -1671.97 -1676.90 -1681.90 -1686.97 -1692.10 -1697.30 -1702.56 -1707.89 -1713.28 -1718.73 -1724.24 -1729.82 -1735.46 -1741.16 -1746.93 -1752.75 -1758.63 -1764.58 -1770.58 -1776.65 -1782.77 -1788.95 -1795.20 -1801.49 -1807.85 -1814.26 -1820.74 -1827.26 -1833.85 -1840.48 -1847.18 -1853.93 -1860.73 -1867.59 -1874.50 -1881.47 -1888.49 -1895.56 -1902.68 -1909.86 -1917.09 -1924.36 -1931.69 -1939.07 -1946.50 -1953.98 -1961.51 -1969.09 -1976.72 -1984.39 -1992.12 -1999.89 -2007.71 -2015.57 -2023.48 -2031.44 -2039.44 -2047.49 -2055.59 -2063.72 -2071.91 -2080.14 -2088.41 -2096.72 -2105.08 -2113.48 -2121.92 -2130.41 -2138.93 -2147.50 -2156.11 -2164.76 -2173.45 -2182.18 -2190.95 -2199.76 -2208.60 -2217.49 -2226.42 -2235.38 -2244.38 -2253.42 -2262.50 -2271.61 -2280.76 -2289.95 -2299.17 -2308.43 -2317.72 -2327.05 -2336.42 -2345.82 -2355.25 -2364.72 -2374.22 -2383.75 -2393.32 -2402.92 -2412.55 -2422.22 -2431.92 -2441.65 -2451.41 -2461.20 -2471.02 -2480.88 -2490.76 -2500.68 -2510.63 -2520.60 -2530.61 -2540.64 -2550.70 -2560.80 -2570.92 -2581.07 -2591.25 -2601.45 -2611.68 -2621.94 -2632.23 -2642.55 -2652.89 -2663.26 -2673.65 -2684.07 -2694.52 -2704.99 -2715.49 -2726.01 -2736.56 -2747.13 -2757.73 -2768.35 -2779.00 -2789.67 -2800.37 -2811.08 -2821.82 -2832.59 -2843.38 -2854.19 -2865.02 -2875.88 -2886.75 -2897.66 -2908.58 -2919.52 -2930.49 -2941.47 -2952.48 -2963.51 -2974.56 -2985.63 -2996.73 -3007.84 -3018.97 -3030.12 -3041.29 -3052.49 -3063.70 -3074.93 -3086.18 -3097.45 -3108.74 -3120.04 -3131.37 -3142.71 -3154.08 -3165.46 -3176.86 -3188.27 -3199.71 -3211.16 -3222.63 -3234.12 -3245.62 -3257.14
-1848.09 -1841.26 -1834.48 -1827.76 -1821.09 -1814.48 -1807.92 -1801.42 -1794.98 -1788.60 -1782.27 -1776.00 -1769.79 -1763.64 -1757.55 -1751.51 -1745.54 -1739.63 -1733.78 -1727.99 -1722.26 -1716.59 -1710.99 -1705.45 -1699.97 -1694.55 -1689.20 -1683.92 -1678.69 -1673.54 -1668.44 -1663.42 -1658.46 -1653.56 -1648.74 -1643.98 -1639.28 -1634.66 -1630.10 -1625.61 -1621.20 -1616.85 -1612.56 -1608.35 -1604.21 -1600.14 -1596.14 -1592.21 -1588.36 -1584.57 -1580.86 -1577.22 -1573.65 -1570.16 -1566.73 -1563.39 -1560.11 -1556.91 -1553.78 -1550.73 -1547.75 -1544.85 -1542.03 -1539.28 -1536.60 -1534.00 -1531.48 -1529.03 -1526.66 -1524.37 -1522.16 -1520.02 -1517.96 -1515.97 -1514.07 -1512.24 -1510.49 -1508.82 -1507.23 -1505.72 -1504.29 -1502.93 -1501.65 -1500.46 -1499.34 -1498.30 -1497.34 -1496.46 -1495.66 -1494.94 -1494.30 -1493.74 -1493.26 -1492.86 -1492.54 -1492.30 -1492.14 -1492.06 -1492.06 -1492.14 -1492.30 -1492.54 -1492.86 -1493.26 -1493.74 -1494.30 -1494.94 -1495.66 -1496.46 -1497.34 -1498.30 -1499.34 -1500.46 -1501.65 -1502.93 -1504.29 -1505.72 -1507.23 -1508.82 -1510.49 -1512.24 -1514.07 -1515.97 -1517.96 -1520.02 -1522.16 -1524.37 -1526.66 -1529.03 -1531.48 -1534.00 -1536.60 -1539.28 -1542.03 -1544.85 -1547.75 -1550.73 -1553.78 -1556.91 -1560.11 -1563.39 -1566.73 -1570.16 -1573.65 -1577.22 -1580.86 -1584.57 -1588.36 -1592.21 -1596.14 -1600.14 -1604.21 -1608.35 -1612.56 -1616.85 -1621.20 -1625.61 -1630.10 -1634.66 -1639.28 -1643.98 -1648.74 -1653.56 -1658.46 -1663.42 -1668.44 -1673.54 -1678.69 -1683.92 -1689.20 -1694.55 -1699.97 -1705.45 -1710.99 -1716.59 -1722.26 -1727.99 -1733.78 -1739.63 -1745.54 -1751.51 -1757.55 -1763.64 -1769.79 -1776.00 -1782.27 -1788.60 -1794.98 -1801.42 -1807.92 -1814.48 -1821.09 -1827.76 -1834.48 -1841.26 -1848.09 -1854.98 -1861.92 -1868.92 -1875.97 -1883.07 -1890.22 -1897.43 -1904.68 -1911.99 -1919.35 -1926.76 -1934.22 -1941.73 -1949.29 -1956.90 -1964.56 -1972.27 -1980.02 -1987.82 -1995.67 -2003.56 -2011.51 -2019.50 -2027.53 -2035.61 -2043.73 -2051.90 -2060.12 -2068.38 -2076.68 -2085.02 -2093.41 -2101.84 -2110.31 -2118.83 -2127.39 -2135.99 -2144.62 -2153.30 -2162.03 -2170.79 -2179.59 -2188.43 -2197.30 -2206.22 -2215.18 -2224.17 -2233.20 -2242.27 -2251.38 -2260.53 -2269.71 -2278.92 -2288.18 -2297.46 -2306.79 -2316.15 -2325.54 -2334.97 -2344.43 -2353.93 -2363.46 -2373.02 -2382.62 -2392.25 -2401.91 -2411.61 -2421.34 -2431.10 -2440.89 -2450.71 -2460.56 -2470.44 -2480.36 -2490.30 -2500.28 -2510.28 -2520.32 -2530.38 -2540.47 -2550.59 -2560.74 -2570.92 -2581.12 -2591.36 -2601.62 -2611.91 -2622.22 -2632.57 -2642.94 -2653.33 -2663.75 -2674.20 -2684.68 -2695.17 -2705.70 -2716.25 -2726.83 -2737.43 -2748.05 -2758.70 -2769.37 -2780.07 -2790.79 -2801.53 -2812.30 -2823.09 -2833.91 -2844.74 -2855.60 -2866.48 -2877.39 -2888.31 -2899.26 -2910.23 -2921.22 -2932.23 -2943.27 -2954.32 -2965.40 -2976.49 -2987.61 -2998.75 -3009.90 -3021.08 -3032.28 -3043.49 -3054.73 -3065.99 -3077.26 -3088.55 -3099.87 -3111.20 -3122.55 -3133.92 -3145.30 -3156.71 -3168.13 -3179.57 -3191.03 -3202.50 -3214.00 -3225.51 -3237.03 -3248.58
-1835.47 -1828.61 -1821.80 -1815.05 -1808.35 -1801.71 -1795.12 -1788.60 -1782.12 -1775.71 -1769.36 -1763.06 -1756.82 -1750.64 -1744.52 -1738.46 -1732.46 -1726.52 -1720.64 -1714.82 -1709.07 -1703.38 -1697.74 -1692.18 -1686.67 -1681.23 -1675.85 -1670.54 -1665.29 -1660.11 -1655.00 -1649.94 -1644.96 -1640.04 -1635.19 -1630.41 -1625.69 -1621.04 -1616.46 -1611.95 -1607.51 -1603.14 -1598.84 -1594.60 -1590.44 -1586.35 -1582.33 -1578.38 -1574.50 -1570.70 -1566.97 -1563.31 -1559.72 -1556.21 -1552.77 -1549.40 -1546.11 -1542.89 -1539.75 -1536.68 -1533.69 -1530.77 -1527.93 -1525.16 -1522.47 -1519.86 -1517.32 -1514.86 -1512.48 -1510.18 -1507.95 -1505.80 -1503.73 -1501.73 -1499.82 -1497.98 -1496.22 -1494.54 -1492.94 -1491.42 -1489.98 -1488.62 -1487.33 -1486.13 -1485.01 -1483.96 -1483.00 -1482.11 -1481.31 -1480.59 -1479.94 -1479.38 -1478.90 -1478.50 -1478.17 -1477.93 -1477.77 -1477.69 -1477.69 -1477.77 -1477.93 -1478.17 -1478.50 -1478.90 -1479.38 -1479.94 -1480.59 -1481.31 -1482.11 -1483.00 -1483.96 -1485.01 -1486.13 -1487.33 -1488.62 -1489.98 -1491.42 -1492.94 -1494.54 -1496.22 -1497.98 -1499.82 -1501.73 -1503.73 -1505.80 -1507.95 -1510.18 -1512.48 -1514.86 -1517.32 -1519.86 -1522.47 -1525.16 -1527.93 -1530.77 -1533.69 -1536.68 -1539.75 -1542.89 -1546.11 -1549.40 -1552.77 -1556.21 -1559.72 -1563.31 -1566.97 -1570.70 -1574.50 -1578.38 -1582.33 -1586.35 -1590.44 -1594.60 -1598.84 -1603.14 -1607.51 -1611.95 -1616.46 -1621.04 -1625.69 -1630.41 -1635.19 -1640.04 -1644.96 -1649.94 -1655.00 -1660.11 -1665.29 -1670.54 -1675.85 -1681.23 -1686.67 -1692.18 -1697.74 -1703.38 -1709.07 -1714.82 -1720.64 -1726.52 -1732.46 -1738.46 -1744.52 -1750.64 -1756.82 -1763.06 -1769.36 -1775.71 -1782.12 -1788.60 -1795.12 -1801.71 -1808.35 -1815.05 -1821.80 -1828.61 -1835.47 -1842.39 -1849.36 -1856.39 -1863.46 -1870.59 -1877.78 -1885.01 -1892.30 -1899.64 -1907.03 -1914.47 -1921.96 -1929.50 -1937.09 -1944.73 -1952.42 -1960.16 -1967.94 -1975.77 -1983.65 -1991.58 -1999.55 -2007.57 -2015.64 -2023.75 -2031.90 -2040.10 -2048.35 -2056.64 -2064.97 -2073.35 -2081.77 -2090.23 -2098.73 -2107.28 -2115.87 -2124.49 -2133.16 -2141.88 -2150.63 -2159.42 -2168.25 -2177.12 -2186.03 -2194.98 -2203.96 -2212.99 -2222.05 -2231.15 -2240.29 -2249.46 -2258.67 -2267.92 -2277.20 -2286.52 -2295.88 -2305.27 -2314.69 -2324.15 -2333.64 -2343.17 -2352.73 -2362.32 -2371.95 -2381.61 -2391.30 -2401.03 -2410.78 -2420.57 -2430.39 -2440.24 -2450.12 -2460.04 -2469.98 -2479.95 -2489.96 -2499.99 -2510.05 -2520.14 -2530.26 -2540.41 -2550.59 -2560.80 -2571.03 -2581.29 -2591.58 -2601.90 -2612.24 -2622.61 -2633.01 -2643.43 -2653.88 -2664.36 -2674.86 -2685.39 -2695.94 -2706.52 -2717.12 -2727.75 -2738.40 -2749.07 -2759.77 -2770.50 -2781.24 -2792.01 -2802.81 -2813.63 -2824.47 -2835.33 -2846.21 -2857.12 -2868.05 -2879.00 -2889.98 -2900.97 -2911.99 -2923.03 -2934.08 -2945.16 -2956.26 -2967.39 -2978.53 -2989.69 -3000.87 -3012.07 -3023.29 -3034.53 -3045.79 -3057.07 -3068.37 -3079.69 -3091.03 -3102.38 -3113.76 -3125.15 -3136.56 -3147.99 -3159.43 -3170.89 -3182.38 -3193.87 -3205.39 -3216.92 -3228.47 -3240.04
-1822.87 -1815.97 -1809.13 -1802.35 -1795.63 -1788.95 -1782.34 -1775.78 -1769.28 -1762.84 -1756.46 -1750.13 -1743.86 -1737.65 -1731.51 -1725.42 -1719.39 -1713.42 -1707.52 -1701.67 -1695.89 -1690.17 -1684.51 -1678.92 -1673.39 -1667.92 -1662.52 -1657.18 -1651.91 -1646.70 -1641.56 -1636.48 -1631.47 -1626.53 -1621.65 -1616.85 -1612.11 -1607.43 -1602.83 -1598.30 -1593.83 -1589.44 -1585.11 -1580.86 -1576.68 -1572.56 -1568.52 -1564.55 -1560.66 -1556.83 -1553.08 -1549.40 -1545.79 -1542.26 -1538.80 -1535.42 -1532.11 -1528.88 -1525.72 -1522.63 -1519.62 -1516.69 -1513.83 -1511.05 -1508.35 -1505.72 -1503.17 -1500.70 -1498.30 -1495.98 -1493.74 -1491.58 -1489.50 -1487.50 -1485.57 -1483.72 -1481.95 -1480.27 -1478.66 -1477.13 -1475.68 -1474.31 -1473.02 -1471.80 -1470.67 -1469.62 -1468.66 -1467.77 -1466.96 -1466.23 -1465.58 -1465.02 -1464.53 -1464.13 -1463.80 -1463.56 -1463.40 -1463.32 -1463.32 -1463.40 -1463.56 -1463.80 -1464.13 -1464.53 -1465.02 -1465.58 -1466.23 -1466.96 -1467.77 -1468.66 -1469.62 -1470.67 -1471.80 -1473.02 -1474.31 -1475.68 -1477.13 -1478.66 -1480.27 -1481.95 -1483.72 -1485.57 -1487.50 -1489.50 -1491.58 -1493.74 -1495.98 -1498.30 -1500.70 -1503.17 -1505.72 -1508.35 -1511.05 -1513.83 -1516.69 -1519.62 -1522.63 -1525.72 -1528.88 -1532.11 -1535.42 -1538.80 -1542.26 -1545.79 -1549.40 -1553.08 -1556.83 -1560.66 -1564.55 -1568.52 -1572.56 -1576.68 -1580.86 -1585.11 -1589.44 -1593.83 -1598.30 -1602.83 -1607.43 -1612.11 -1616.85 -1621.65 -1626.53 -1631.47 -1636.48 -1641.56 -1646.70 -1651.91 -1657.18 -1662.52 -1667.92 -1673.39 -1678.92 -1684.51 -1690.17 -1695.89 -1701.67 -1707.52 -1713.42 -1719.39 -1725.42 -1731.51 -1737.65 -1743.86 -1750.13 -1756.46 -1762.84 -1769.28 -1775.78 -1782.34 -1788.95 -1795.63 -1802.35 -1809.13 -1815.97 -1822.87 -1829.81 -1836.81 -1843.87 -1850.98 -1858.14 -1865.35 -1872.62 -1879.94 -1887.31 -1894.73 -1902.20 -1909.72 -1917.29 -1924.91 -1932.58 -1940.30 -1948.07 -1955.88 -1963.75 -1971.66 -1979.62 -1987.62 -1995.67 -2003.77 -2011.91 -2020.09 -2028.33 -2036.60 -2044.92 -2053.28 -2061.69 -2070.14 -2078.63 -2087.17 -2095.75 -2104.37 -2113.03 -2121.73 -2130.47 -2139.25 -2148.07 -2156.94 -2165.84 -2174.78 -2183.76 -2192.77 -2201.83 -2210.92 -2220.05 -2229.22 -2238.43 -2247.67 -2256.94 -2266.26 -2275.61 -2284.99 -2294.41 -2303.87 -2313.35 -2322.88 -2332.43 -2342.02 -2351.65 -2361.30 -2370.99 -2380.72 -2390.47 -2400.26 -2410.07 -2419.92 -2429.80 -2439.71 -2449.66 -2459.63 -2469.63 -2479.66 -2489.73 -2499.82 -2509.94 -2520.09 -2530.26 -2540.47 -2550.70 -2560.97 -2571.26 -2581.57 -2591.92 -2602.29 -2612.69 -2623.11 -2633.57 -2644.04 -2654.55 -2665.07 -2675.63 -2686.21 -2696.81 -2707.44 -2718.10 -2728.77 -2739.48 -2750.20 -2760.95 -2771.73 -2782.52 -2793.35 -2804.19 -2815.05 -2825.94 -2836.86 -2847.79 -2858.74 -2869.72 -2880.72 -2891.74 -2902.78 -2913.85 -2924.93 -2936.04 -2947.16 -2958.31 -2969.47 -2980.66 -2991.87 -3003.09 -3014.34 -3025.60 -3036.89 -3048.19 -3059.52 -3070.86 -3082.22 -3093.60 -3104.99 -3116.41 -3127.84 -3139.29 -3150.76 -3162.25 -3173.76 -3185.28 -3196.82 -3208.37 -3219.95 -3231.54
-1810.28 -1803.35 -1796.48 -1789.67 -1782.92 -1776.22 -1769.57 -1762.99 -1756.46 -1749.98 -1743.57 -1737.22 -1730.92 -1724.68 -1718.51 -1712.39 -1706.33 -1700.34 -1694.41 -1688.53 -1682.72 -1676.98 -1671.29 -1665.67 -1660.11 -1654.62 -1649.19 -1643.83 -1638.53 -1633.29 -1628.13 -1623.02 -1617.99 -1613.02 -1608.12 -1603.29 -1598.53 -1593.83 -1589.21 -1584.65 -1580.16 -1575.75 -1571.40 -1567.12 -1562.92 -1558.78 -1554.72 -1550.73 -1546.81 -1542.97 -1539.20 -1535.50 -1531.87 -1528.32 -1524.85 -1521.44 -1518.12 -1514.86 -1511.69 -1508.59 -1505.56 -1502.61 -1499.74 -1496.94 -1494.22 -1491.58 -1489.02 -1486.53 -1484.12 -1481.79 -1479.54 -1477.37 -1475.27 -1473.26 -1471.32 -1469.46 -1467.69 -1465.99 -1464.37 -1462.83 -1461.37 -1459.99 -1458.70 -1457.48 -1456.34 -1455.29 -1454.31 -1453.42 -1452.61 -1451.87 -1451.22 -1450.65 -1450.16 -1449.76 -1449.43 -1449.19 -1449.02 -1448.94 -1448.94 -1449.02 -1449.19 -1449.43 -1449.76 -1450.16 -1450.65 -1451.22 -1451.87 -1452.61 -1453.42 -1454.31 -1455.29 -1456.34 -1457.48 -1458.70 -1459.99 -1461.37 -1462.83 -1464.37 -1465.99 -1467.69 -1469.46 -1471.32 -1473.26 -1475.27 -1477.37 -1479.54 -1481.79 -1484.12 -1486.53 -1489.02 -1491.58 -1494.22 -1496.94 -1499.74 -1502.61 -1505.56 -1508.59 -1511.69 -1514.86 -1518.12 -1521.44 -1524.85 -1528.32 -1531.87 -1535.50 -1539.20 -1542.97 -1546.81 -1550.73 -1554.72 -1558.78 -1562.92 -1567.12 -1571.40 -1575.75 -1580.16 -1584.65 -1589.21 -1593.83 -1598.53 -1603.29 -1608.12 -1613.02 -1617.99 -1623.02 -1628.13 -1633.29 -1638.53 -1643.83 -1649.19 -1654.62 -1660.11 -1665.67 -1671.29 -1676.98 -1682.72 -1688.53 -1694.41 -1700.34 -1706.33 -1712.39 -1718.51 -1724.68 -1730.92 -1737.22 -1743.57 -1749.98 -1756.46 -1762.99 -1769.57 -1776.22 -1782.92 -1789.67 -1796.48 -1803.35 -1810.28 -1817.25 -1824.28 -1831.37 -1838.51 -1845.70 -1852.94 -1860.24 -1867.59 -1874.99 -1882.44 -1889.94 -1897.50 -1905.10 -1912.75 -1920.45 -1928.20 -1936.00 -1943.85 -1951.74 -1959.68 -1967.67 -1975.71 -1983.79 -1991.92 -2000.09 -2008.31 -2016.57 -2024.88 -2033.23 -2041.62 -2050.06 -2058.54 -2067.07 -2075.63 -2084.24 -2092.89 -2101.58 -2110.31 -2119.09 -2127.90 -2136.75 -2145.65 -2154.58 -2163.55 -2172.56 -2181.61 -2190.70 -2199.82 -2208.98 -2218.18 -2227.41 -2236.69 -2245.99 -2255.34 -2264.72 -2274.13 -2283.58 -2293.07 -2302.59 -2312.14 -2321.73 -2331.35 -2341.00 -2350.69 -2360.41 -2370.16 -2379.94 -2389.76 -2399.60 -2409.48 -2419.39 -2429.33 -2439.30 -2449.31 -2459.34 -2469.40 -2479.49 -2489.61 -2499.76 -2509.94 -2520.14 -2530.38 -2540.64 -2550.93 -2561.25 -2571.60 -2581.97 -2592.37 -2602.79 -2613.25 -2623.73 -2634.23 -2644.76 -2655.32 -2665.90 -2676.51 -2687.14 -2697.80 -2708.48 -2719.18 -2729.91 -2740.66 -2751.44 -2762.24 -2773.07 -2783.91 -2794.78 -2805.67 -2816.59 -2827.53 -2838.49 -2849.47 -2860.47 -2871.50 -2882.54 -2893.61 -2904.70 -2915.81 -2926.94 -2938.09 -2949.26 -2960.45 -2971.66 -2982.89 -2994.14 -3005.42 -3016.71 -3028.01 -3039.34 -3050.69 -3062.06 -3073.44 -3084.84 -3096.26 -3107.70 -3119.16 -3130.64 -3142.13 -3153.64 -3165.17 -3176.71 -3188.27 -3199.85 -3211.45 -3223.06
-1797.70 -1790.75 -1783.85 -1777.01 -1770.22 -1763.49 -1756.82 -1750.20 -1743.64 -1737.14 -1730.70 -1724.32 -1717.99 -1711.73 -1705.52 -1699.38 -1693.29 -1687.27 -1681.31 -1675.41 -1669.57 -1663.79 -1658.08 -1652.43 -1646.85 -1641.33 -1635.87 -1630.48 -1625.16 -1619.90 -1614.71 -1609.58 -1604.52 -1599.53 -1594.60 -1589.75 -1584.96 -1580.24 -1575.59 -1571.01 -1566.50 -1562.06 -1557.69 -1553.39 -1549.17 -1545.01 -1540.93 -1536.92 -1532.98 -1529.11 -1525.32 -1521.60 -1517.96 -1514.39 -1510.89 -1507.47 -1504.13 -1500.86 -1497.66 -1494.54 -1491.50 -1488.54 -1485.65 -1482.84 -1480.10 -1477.45 -1474.87 -1472.37 -1469.95 -1467.60 -1465.34 -1463.15 -1461.05 -1459.02 -1457.07 -1455.21 -1453.42 -1451.71 -1450.08 -1448.54 -1447.07 -1445.68 -1444.38 -1443.15 -1442.01 -1440.95 -1439.97 -1439.07 -1438.25 -1437.52 -1436.86 -1436.29 -1435.80 -1435.39 -1435.06 -1434.82 -1434.65 -1434.57 -1434.57 -1434.65 -1434.82 -1435.06 -1435.39 -1435.80 -1436.29 -1436.86 -1437.52 -1438.25 -1439.07 -1439.97 -1440.95 -1442.01 -1443.15 -1444.38 -1445.68 -1447.07 -1448.54 -1450.08 -1451.71 -1453.42 -1455.21 -1457.07 -1459.02 -1461.05 -1463.15 -1465.34 -1467.60 -1469.95 -1472.37 -1474.87 -1477.45 -1480.10 -1482.84 -1485.65 -1488.54 -1491.50 -1494.54 -1497.66 -1500.86 -1504.13 -1507.47 -1510.89 -1514.39 -1517.96 -1521.60 -1525.32 -1529.11 -1532.98 -1536.92 -1540.93 -1545.01 -1549.17 -1553.39 -1557.69 -1562.06 -1566.50 -1571.01 -1575.59 -1580.24 -1584.96 -1589.75 -1594.60 -1599.53 -1604.52 -1609.58 -1614.71 -1619.90 -1625.16 -1630.48 -1635.87 -1641.33 -1646.85 -1652.43 -1658.08 -1663.79 -1669.57 -1675.41 -1681.31 -1687.27 -1693.29 -1699.38 -1705.52 -1711.73 -1717.99 -1724.32 -1730.70 -1737.14 -1743.64 -1750.20 -1756.82 -1763.49 -1770.22 -1777.01 -1783.85 -1790.75 -1797.70 -1804.71 -1811.77 -1818.89 -1826.06 -1833.28 -1840.55 -1847.88 -1855.26 -1862.69 -1870.18 -1877.71 -1885.29 -1892.93 -1900.61 -1908.34 -1916.12 -1923.95 -1931.83 -1939.76 -1947.73 -1955.75 -1963.82 -1971.93 -1980.09 -1988.29 -1996.54 -2004.83 -2013.17 -2021.56 -2029.98 -2038.45 -2046.96 -2055.52 -2064.12 -2072.76 -2081.44 -2090.16 -2098.93 -2107.73 -2116.57 -2125.46 -2134.38 -2143.35 -2152.35 -2161.39 -2170.47 -2179.59 -2188.74 -2197.93 -2207.16 -2216.43 -2225.73 -2235.07 -2244.45 -2253.86 -2263.30 -2272.78 -2282.30 -2291.84 -2301.43 -2311.05 -2320.70 -2330.38 -2340.10 -2349.85 -2359.63 -2369.44 -2379.29 -2389.16 -2399.07 -2409.01 -2418.98 -2428.98 -2439.01 -2449.07 -2459.16 -2469.28 -2479.43 -2489.61 -2499.82 -2510.05 -2520.32 -2530.61 -2540.93 -2551.27 -2561.65 -2572.05 -2582.47 -2592.93 -2603.41 -2613.92 -2624.45 -2635.01 -2645.59 -2656.20 -2666.84 -2677.49 -2688.18 -2698.89 -2709.62 -2720.38 -2731.16 -2741.96 -2752.79 -2763.64 -2774.51 -2785.41 -2796.32 -2807.27 -2818.23 -2829.22 -2840.22 -2851.25 -2862.30 -2873.37 -2884.47 -2895.58 -2906.72 -2917.87 -2929.05 -2940.24 -2951.46 -2962.70 -2973.95 -2985.23 -2996.52 -3007.84 -3019.17 -3030.52 -3041.89 -3053.28 -3064.69 -3076.12 -3087.56 -3099.03 -3110.51 -3122.01 -3133.52 -3145.06 -3156.61 -3168.18 -3179.76 -3191.37 -3202.98 -3214.62
-1785.15 -1778.16 -1771.23 -1764.36 -1757.55 -1750.78 -1744.08 -1737.44 -1730.85 -1724.32 -1717.84 -1711.43 -1705.08 -1698.78 -1692.55 -1686.37 -1680.26 -1674.21 -1668.22 -1662.29 -1656.43 -1650.62 -1644.88 -1639.21 -1633.60 -1628.05 -1622.57 -1617.15 -1611.80 -1606.51 -1601.30 -1596.14 -1591.06 -1586.04 -1581.09 -1576.21 -1571.40 -1566.66 -1561.98 -1557.38 -1552.84 -1548.38 -1543.99 -1539.67 -1535.42 -1531.24 -1527.14 -1523.11 -1519.15 -1515.26 -1511.45 -1507.71 -1504.05 -1500.46 -1496.94 -1493.50 -1490.14 -1486.85 -1483.64 -1480.51 -1477.45 -1474.47 -1471.56 -1468.74 -1465.99 -1463.32 -1460.72 -1458.21 -1455.77 -1453.42 -1451.14 -1448.94 -1446.82 -1444.79 -1442.83 -1440.95 -1439.15 -1437.43 -1435.80 -1434.24 -1432.77 -1431.37 -1430.06 -1428.83 -1427.68 -1426.61 -1425.63 -1424.72 -1423.90 -1423.16 -1422.50 -1421.93 -1421.43 -1421.02 -1420.69 -1420.44 -1420.28 -1420.20 -1420.20 -1420.28 -1420.44 -1420.69 -1421.02 -1421.43 -1421.93 -1422.50 -1423.16 -1423.90 -1424.72 -1425.63 -1426.61 -1427.68 -1428.83 -1430.06 -1431.37 -1432.77 -1434.24 -1435.80 -1437.43 -1439.15 -1440.95 -1442.83 -1444.79 -1446.82 -1448.94 -1451.14 -1453.42 -1455.77 -1458.21 -1460.72 -1463.32 -1465.99 -1468.74 -1471.56 -1474.47 -1477.45 -1480.51 -1483.64 -1486.85 -1490.14 -1493.50 -1496.94 -1500.46 -1504.05 -1507.71 -1511.45 -1515.26 -1519.15 -1523.11 -1527.14 -1531.24 -1535.42 -1539.67 -1543.99 -1548.38 -1552.84 -1557.38 -1561.98 -1566.66 -1571.40 -1576.21 -1581.09 -1586.04 -1591.06 -1596.14 -1601.30 -1606.51 -1611.80 -1617.15 -1622.57 -1628.05 -1633.60 -1639.21 -1644.88 -1650.62 -1656.43 -1662.29 -1668.22 -1674.21 -1680.26 -1686.37 -1692.55 -1698.78 -1705.08 -1711.43 -1717.84 -1724.32 -1730.85 -1737.44 -1744.08 -1750.78 -1757.55 -1764.36 -1771.23 -1778.16 -1785.15 -1792.18 -1799.28 -1806.42 -1813.62 -1820.88 -1828.18 -1835.54 -1842.95 -1850.41 -1857.93 -1865.49 -1873.11 -1880.77 -1888.49 -1896.25 -1904.06 -1911.92 -1919.83 -1927.79 -1935.80 -1943.85 -1951.95 -1960.09 -1968.28 -1976.52 -1984.80 -1993.12 -2001.49 -2009.91 -2018.36 -2026.87 -2035.41 -2044.00 -2052.63 -2061.30 -2070.01 -2078.77 -2087.56 -2096.40 -2105.27 -2114.19 -2123.14 -2132.14 -2141.17 -2150.24 -2159.35 -2168.50 -2177.69 -2186.91 -2196.17 -2205.47 -2214.80 -2224.17 -2233.58 -2243.02 -2252.49 -2262.01 -2271.55 -2281.13 -2290.74 -2300.39 -2310.07 -2319.79 -2329.53 -2339.31 -2349.12 -2358.97 -2368.84 -2378.75 -2388.69 -2398.66 -2408.66 -2418.69 -2428.75 -2438.84 -2448.96 -2459.10 -2469.28 -2479.49 -2489.73 -2499.99 -2510.28 -2520.60 -2530.95 -2541.32 -2551.73 -2562.16 -2572.61 -2583.09 -2593.60 -2604.14 -2614.70 -2625.28 -2635.90 -2646.53 -2657.19 -2667.88 -2678.59 -2689.33 -2700.09 -2710.87 -2721.68 -2732.51 -2743.36 -2754.24 -2765.14 -2776.06 -2787.01 -2797.97 -2808.96 -2819.97 -2831.01 -2842.06 -2853.14 -2864.24 -2875.36 -2886.49 -2897.66 -2908.84 -2920.04 -2931.26 -2942.50 -2953.76 -2965.04 -2976.34 -2987.66 -2999.00 -3010.36 -3021.74 -3033.13 -3044.54 -3055.98 -3067.43 -3078.90 -3090.38 -3101.89 -3113.41 -3124.95 -3136.51 -3148.08 -3159.67 -3171.28 -3182.91 -3194.55 -3206.21
-1772.61 -1765.59 -1758.63 -1751.73 -1744.88 -1738.09 -1731.36 -1724.68 -1718.07 -1711.50 -1705.00 -1698.56 -1692.18 -1685.85 -1679.59 -1673.39 -1667.25 -1661.16 -1655.15 -1649.19 -1643.30 -1637.47 -1631.70 -1626.00 -1620.36 -1614.78 -1609.27 -1603.83 -1598.45 -1593.14 -1587.89 -1582.72 -1577.61 -1572.56 -1567.59 -1562.68 -1557.85 -1553.08 -1548.38 -1543.75 -1539.20 -1534.71 -1530.30 -1525.95 -1521.68 -1517.48 -1513.36 -1509.30 -1505.32 -1501.42 -1497.58 -1493.82 -1490.14 -1486.53 -1483.00 -1479.54 -1476.16 -1472.85 -1469.62 -1466.47 -1463.40 -1460.40 -1457.48 -1454.64 -1451.87 -1449.19 -1446.58 -1444.05 -1441.60 -1439.23 -1436.94 -1434.73 -1432.60 -1430.55 -1428.58 -1426.69 -1424.89 -1423.16 -1421.51 -1419.95 -1418.47 -1417.06 -1415.74 -1414.51 -1413.35 -1412.28 -1411.28 -1410.38 -1409.55 -1408.80 -1408.14 -1407.56 -1407.07 -1406.65 -1406.32 -1406.07 -1405.91 -1405.82 -1405.82 -1405.91 -1406.07 -1406.32 -1406.65 -1407.07 -1407.56 -1408.14 -1408.80 -1409.55 -1410.38 -1411.28 -1412.28 -1413.35 -1414.51 -1415.74 -1417.06 -1418.47 -1419.95 -1421.51 -1423.16 -1424.89 -1426.69 -1428.58 -1430.55 -1432.60 -1434.73 -1436.94 -1439.23 -1441.60 -1444.05 -1446.58 -1449.19 -1451.87 -1454.64 -1457.48 -1460.40 -1463.40 -1466.47 -1469.62 -1472.85 -1476.16 -1479.54 -1483.00 -1486.53 -1490.14 -1493.82 -1497.58 -1501.42 -1505.32 -1509.30 -1513.36 -1517.48 -1521.68 -1525.95 -1530.30 -1534.71 -1539.20 -1543.75 -1548.38 -1553.08 -1557.85 -1562.68 -1567.59 -1572.56 -1577.61 -1582.72 -1587.89 -1593.14 -1598.45 -1603.83 -1609.27 -1614.78 -1620.36 -1626.00 -1631.70 -1637.47 -1643.30 -1649.19 -1655.15 -1661.16 -1667.25 -1673.39 -1679.59 -1685.85 -1692.18 -1698.56 -1705.00 -1711.50 -1718.07 -1724.68 -1731.36 -1738.09 -1744.88 -1751.73 -1758.63 -1765.59 -1772.61 -1779.68 -1786.80 -1793.98 -1801.21 -1808.49 -1815.83 -1823.22 -1830.66 -1838.16 -1845.70 -1853.30 -1860.94 -1868.64 -1876.38 -1884.18 -1892.02 -1899.92 -1907.86 -1915.85 -1923.88 -1931.97 -1940.10 -1948.27 -1956.50 -1964.76 -1973.08 -1981.43 -1989.84 -1998.28 -2006.77 -2015.30 -2023.88 -2032.50 -2041.16 -2049.86 -2058.61 -2067.39 -2076.22 -2085.09 -2093.99 -2102.94 -2111.93 -2120.96 -2130.02 -2139.12 -2148.27 -2157.45 -2166.66 -2175.92 -2185.21 -2194.54 -2203.90 -2213.30 -2222.74 -2232.21 -2241.72 -2251.26 -2260.83 -2270.44 -2280.09 -2289.77 -2299.48 -2309.22 -2319.00 -2328.81 -2338.65 -2348.52 -2358.43 -2368.36 -2378.33 -2388.33 -2398.36 -2408.42 -2418.51 -2428.63 -2438.78 -2448.96 -2459.16 -2469.40 -2479.66 -2489.96 -2500.28 -2510.63 -2521.00 -2531.41 -2541.84 -2552.29 -2562.78 -2573.29 -2583.83 -2594.39 -2604.98 -2615.59 -2626.23 -2636.89 -2647.58 -2658.30 -2669.04 -2679.80 -2690.58 -2701.40 -2712.23 -2723.09 -2733.97 -2744.87 -2755.80 -2766.75 -2777.72 -2788.71 -2799.73 -2810.77 -2821.82 -2832.91 -2844.01 -2855.13 -2866.27 -2877.44 -2888.63 -2899.83 -2911.06 -2922.30 -2933.57 -2944.86 -2956.16 -2967.49 -2978.83 -2990.20 -3001.58 -3012.98 -3024.40 -3035.84 -3047.29 -3058.77 -3070.26 -3081.77 -3093.30 -3104.85 -3116.41 -3127.99 -3139.59 -3151.20 -3162.83 -3174.48 -3186.15 -3197.83
-1760.09 -1753.04 -1746.05 -1739.12 -1732.24 -1725.42 -1718.65 -1711.95 -1705.30 -1698.71 -1692.18 -1685.70 -1679.29 -1672.94 -1666.65 -1660.41 -1654.24 -1648.13 -1642.09 -1636.10 -1630.18 -1624.32 -1618.53 -1612.79 -1607.13 -1601.53 -1595.99 -1590.52 -1585.11 -1579.78 -1574.50 -1569.30 -1564.16 -1559.10 -1554.10 -1549.17 -1544.30 -1539.51 -1534.79 -1530.14 -1525.56 -1521.05 -1516.61 -1512.24 -1507.95 -1503.73 -1499.58 -1495.50 -1491.50 -1487.58 -1483.72 -1479.94 -1476.24 -1472.61 -1469.06 -1465.58 -1462.18 -1458.86 -1455.61 -1452.44 -1449.35 -1446.34 -1443.40 -1440.54 -1437.76 -1435.06 -1432.44 -1429.90 -1427.43 -1425.05 -1422.75 -1420.53 -1418.38 -1416.32 -1414.34 -1412.44 -1410.62 -1408.89 -1407.23 -1405.66 -1404.17 -1402.76 -1401.43 -1400.18 -1399.02 -1397.94 -1396.94 -1396.03 -1395.20 -1394.45 -1393.78 -1393.20 -1392.70 -1392.28 -1391.95 -1391.70 -1391.53 -1391.45 -1391.45 -1391.53 -1391.70 -1391.95 -1392.28 -1392.70 -1393.20 -1393.78 -1394.45 -1395.20 -1396.03 -1396.94 -1397.94 -1399.02 -1400.18 -1401.43 -1402.76 -1404.17 -1405.66 -1407.23 -1408.89 -1410.62 -1412.44 -1414.34 -1416.32 -1418.38 -1420.53 -1422.75 -1425.05 -1427.43 -1429.90 -1432.44 -1435.06 -1437.76 -1440.54 -1443.40 -1446.34 -1449.35 -1452.44 -1455.61 -1458.86 -1462.18 -1465.58 -1469.06 -1472.61 -1476.24 -1479.94 -1483.72 -1487.58 -1491.50 -1495.50 -1499.58 -1503.73 -1507.95 -1512.24 -1516.61 -1521.05 -1525.56 -1530.14 -1534.79 -1539.51 -1544.30 -1549.17 -1554.10 -1559.10 -1564.16 -1569.30 -1574.50 -1579.78 -1585.11 -1590.52 -1595.99 -1601.53 -1607.13 -1612.79 -1618.53 -1624.32 -1630.18 -1636.10 -1642.09 -1648.13 -1654.24 -1660.41 -1666.65 -1672.94 -1679.29 -1685.70 -1692.18 -1698.71 -1705.30 -1711.95 -1718.65 -1725.42 -1732.24 -1739.12 -1746.05 -1753.04 -1760.09 -1767.19 -1774.34 -1781.55 -1788.81 -1796.13 -1803.50 -1810.92 -1818.39 -1825.92 -1833.49 -1841.12 -1848.80 -1856.53 -1864.30 -1872.13 -1880.01 -1887.93 -1895.90 -1903.93 -1911.99 -1920.11 -1928.27 -1936.48 -1944.73 -1953.03 -1961.38 -1969.77 -1978.20 -1986.68 -1995.20 -2003.77 -2012.37 -2021.02 -2029.72 -2038.45 -2047.23 -2056.05 -2064.90 -2073.80 -2082.74 -2091.72 -2100.74 -2109.80 -2118.89 -2128.03 -2137.20 -2146.41 -2155.66 -2164.95 -2174.27 -2183.63 -2193.03 -2202.46 -2211.92 -2221.43 -2230.96 -2240.54 -2250.14 -2259.78 -2269.46 -2279.17 -2288.91 -2298.68 -2308.49 -2318.33 -2328.20 -2338.11 -2348.04 -2358.01 -2368.01 -2378.03 -2388.09 -2398.18 -2408.30 -2418.45 -2428.63 -2438.84 -2449.07 -2459.34 -2469.63 -2479.95 -2490.30 -2500.68 -2511.09 -2521.52 -2531.98 -2542.46 -2552.97 -2563.51 -2574.08 -2584.67 -2595.29 -2605.93 -2616.59 -2627.29 -2638.00 -2648.74 -2659.51 -2670.30 -2681.11 -2691.95 -2702.81 -2713.70 -2724.60 -2735.53 -2746.49 -2757.46 -2768.46 -2779.48 -2790.52 -2801.59 -2812.67 -2823.78 -2834.91 -2846.06 -2857.23 -2868.42 -2879.63 -2890.86 -2902.11 -2913.38 -2924.67 -2935.98 -2947.31 -2958.66 -2970.03 -2981.42 -2992.83 -3004.25 -3015.70 -3027.16 -3038.64 -3050.14 -3061.66 -3073.19 -3084.74 -3096.31 -3107.90 -3119.50 -3131.13 -3142.76 -3154.42 -3166.09 -3177.78 -3189.48
-1747.58 -1740.50 -1733.48 -1726.52 -1719.61 -1712.76 -1705.96 -1699.23 -1692.55 -1685.93 -1679.37 -1672.86 -1666.42 -1660.04 -1653.71 -1647.45 -1641.25 -1635.11 -1629.04 -1623.02 -1617.07 -1611.19 -1605.36 -1599.60 -1593.91 -1588.28 -1582.72 -1577.22 -1571.79 -1566.42 -1561.12 -1555.89 -1550.73 -1545.64 -1540.61 -1535.66 -1530.77 -1525.95 -1521.21 -1516.53 -1511.93 -1507.39 -1502.93 -1498.54 -1494.22 -1489.98 -1485.81 -1481.71 -1477.69 -1473.74 -1469.87 -1466.07 -1462.34 -1458.70 -1455.12 -1451.63 -1448.21 -1444.87 -1441.60 -1438.42 -1435.31 -1432.28 -1429.32 -1426.45 -1423.65 -1420.94 -1418.30 -1415.74 -1413.27 -1410.87 -1408.56 -1406.32 -1404.17 -1402.09 -1400.10 -1398.19 -1396.36 -1394.61 -1392.95 -1391.37 -1389.87 -1388.45 -1387.11 -1385.86 -1384.69 -1383.60 -1382.60 -1381.68 -1380.84 -1380.09 -1379.42 -1378.84 -1378.33 -1377.91 -1377.58 -1377.33 -1377.16 -1377.08 -1377.08 -1377.16 -1377.33 -1377.58 -1377.91 -1378.33 -1378.84 -1379.42 -1380.09 -1380.84 -1381.68 -1382.60 -1383.60 -1384.69 -1385.86 -1387.11 -1388.45 -1389.87 -1391.37 -1392.95 -1394.61 -1396.36 -1398.19 -1400.10 -1402.09 -1404.17 -1406.32 -1408.56 -1410.87 -1413.27 -1415.74 -1418.30 -1420.94 -1423.65 -1426.45 -1429.32 -1432.28 -1435.31 -1438.42 -1441.60 -1444.87 -1448.21 -1451.63 -1455.12 -1458.70 -1462.34 -1466.07 -1469.87 -1473.74 -1477.69 -1481.71 -1485.81 -1489.98 -1494.22 -1498.54 -1502.93 -1507.39 -1511.93 -1516.53 -1521.21 -1525.95 -1530.77 -1535.66 -1540.61 -1545.64 -1550.73 -1555.89 -1561.12 -1566.42 -1571.79 -1577.22 -1582.72 -1588.28 -1593.91 -1599.60 -1605.36 -1611.19 -1617.07 -1623.02 -1629.04 -1635.11 -1641.25 -1647.45 -1653.71 -1660.04 -1666.42 -1672.86 -1679.37 -1685.93 -1692.55 -1699.23 -1705.96 -1712.76 -1719.61 -1726.52 -1733.48 -1740.50 -1747.58 -1754.71 -1761.90 -1769.14 -1776.43 -1783.78 -1791.18 -1798.63 -1806.14 -1813.69 -1821.30 -1828.96 -1836.67 -1844.43 -1852.24 -1860.10 -1868.01 -1875.97 -1883.97 -1892.02 -1900.12 -1908.27 -1916.47 -1924.71 -1932.99 -1941.32 -1949.70 -1958.12 -1966.59 -1975.10 -1983.65 -1992.25 -2000.89 -2009.57 -2018.30 -2027.07 -2035.87 -2044.72 -2053.61 -2062.54 -2071.52 -2080.53 -2089.58 -2098.67 -2107.79 -2116.96 -2126.17 -2135.41 -2144.69 -2154.01 -2163.36 -2172.75 -2182.18 -2191.64 -2201.14 -2210.67 -2220.24 -2229.84 -2239.48 -2249.15 -2258.86 -2268.60 -2278.37 -2288.18 -2298.01 -2307.88 -2317.79 -2327.72 -2337.68 -2347.68 -2357.71 -2367.77 -2377.86 -2387.97 -2398.12 -2408.30 -2418.51 -2428.75 -2439.01 -2449.31 -2459.63 -2469.98 -2480.36 -2490.76 -2501.20 -2511.66 -2522.15 -2532.66 -2543.20 -2553.77 -2564.36 -2574.98 -2585.63 -2596.30 -2606.99 -2617.71 -2628.45 -2639.22 -2650.02 -2660.83 -2671.67 -2682.54 -2693.43 -2704.34 -2715.27 -2726.23 -2737.21 -2748.21 -2759.24 -2770.28 -2781.35 -2792.44 -2803.55 -2814.68 -2825.84 -2837.01 -2848.21 -2859.42 -2870.66 -2881.92 -2893.19 -2904.49 -2915.81 -2927.14 -2938.50 -2949.87 -2961.27 -2972.68 -2984.11 -2995.56 -3007.03 -3018.52 -3030.02 -3041.54 -3053.08 -3064.64 -3076.22 -3087.81 -3099.42 -3111.05 -3122.69 -3134.36 -3146.03 -3157.73 -3169.44 -3181.17
-1735.09 -1727.99 -1720.94 -1713.94 -1707.00 -1700.12 -1693.29 -1686.52 -1679.81 -1673.16 -1666.57 -1660.04 -1653.56 -1647.15 -1640.80 -1634.51 -1628.28 -1622.11 -1616.00 -1609.96 -1603.98 -1598.07 -1592.21 -1586.43 -1580.70 -1575.05 -1569.46 -1563.93 -1558.47 -1553.08 -1547.75 -1542.50 -1537.31 -1532.19 -1527.14 -1522.16 -1517.24 -1512.40 -1507.63 -1502.93 -1498.30 -1493.74 -1489.26 -1484.85 -1480.51 -1476.24 -1472.05 -1467.93 -1463.88 -1459.91 -1456.02 -1452.20 -1448.45 -1444.79 -1441.19 -1437.68 -1434.24 -1430.88 -1427.60 -1424.39 -1421.27 -1418.22 -1415.25 -1412.36 -1409.55 -1406.82 -1404.17 -1401.59 -1399.10 -1396.69 -1394.36 -1392.12 -1389.95 -1387.86 -1385.86 -1383.94 -1382.10 -1380.34 -1378.67 -1377.08 -1375.57 -1374.14 -1372.80 -1371.54 -1370.36 -1369.27 -1368.26 -1367.33 -1366.49 -1365.74 -1365.06 -1364.47 -1363.97 -1363.55 -1363.21 -1362.96 -1362.79 -1362.70 -1362.70 -1362.79 -1362.96 -1363.21 -1363.55 -1363.97 -1364.47 -1365.06 -1365.74 -1366.49 -1367.33 -1368.26 -1369.27 -1370.36 -1371.54 -1372.80 -1374.14 -1375.57 -1377.08 -1378.67 -1380.34 -1382.10 -1383.94 -1385.86 -1387.86 -1389.95 -1392.12 -1394.36 -1396.69 -1399.10 -1401.59 -1404.17 -1406.82 -1409.55 -1412.36 -1415.25 -1418.22 -1421.27 -1424.39 -1427.60 -1430.88 -1434.24 -1437.68 -1441.19 -1444.79 -1448.45 -1452.20 -1456.02 -1459.91 -1463.88 -1467.93 -1472.05 -1476.24 -1480.51 -1484.85 -1489.26 -1493.74 -1498.30 -1502.93 -1507.63 -1512.40 -1517.24 -1522.16 -1527.14 -1532.19 -1537.31 -1542.50 -1547.75 -1553.08 -1558.47 -1563.93 -1569.46 -1575.05 -1580.70 -1586.43 -1592.21 -1598.07 -1603.98 -1609.96 -1616.00 -1622.11 -1628.28 -1634.51 -1640.80 -1647.15 -1653.56 -1660.04 -1666.57 -1673.16 -1679.81 -1686.52 -1693.29 -1700.12 -1707.00 -1713.94 -1720.94 -1727.99 -1735.09 -1742.26 -1749.47 -1756.75 -1764.07 -1771.45 -1778.88 -1786.37 -1793.91 -1801.49 -1809.13 -1816.83 -1824.57 -1832.36 -1840.20 -1848.09 -1856.03 -1864.02 -1872.06 -1880.15 -1888.28 -1896.46 -1904.68 -1912.96 -1921.28 -1929.64 -1938.05 -1946.50 -1955.00 -1963.54 -1972.13 -1980.76 -1989.43 -1998.15 -2006.90 -2015.70 -2024.54 -2033.43 -2042.35 -2051.31 -2060.31 -2069.36 -2078.44 -2087.56 -2096.72 -2105.92 -2115.16 -2124.43 -2133.74 -2143.09 -2152.48 -2161.90 -2171.36 -2180.85 -2190.38 -2199.95 -2209.54 -2219.18 -2228.85 -2238.55 -2248.29 -2258.06 -2267.86 -2277.70 -2287.56 -2297.46 -2307.40 -2317.36 -2327.36 -2337.38 -2347.44 -2357.53 -2367.65 -2377.80 -2387.97 -2398.18 -2408.42 -2418.69 -2428.98 -2439.30 -2449.66 -2460.04 -2470.44 -2480.88 -2491.34 -2501.83 -2512.35 -2522.89 -2533.46 -2544.06 -2554.68 -2565.32 -2576.00 -2586.69 -2597.42 -2608.16 -2618.94 -2629.73 -2640.55 -2651.40 -2662.27 -2673.16 -2684.07 -2695.01 -2705.97 -2716.96 -2727.96 -2738.99 -2750.04 -2761.11 -2772.21 -2783.33 -2794.46 -2805.62 -2816.80 -2828.00 -2839.22 -2850.46 -2861.73 -2873.01 -2884.31 -2895.63 -2906.97 -2918.34 -2929.72 -2941.12 -2952.53 -2963.97 -2975.43 -2986.90 -2998.39 -3009.90 -3021.43 -3032.98 -3044.54 -3056.13 -3067.73 -3079.34 -3090.98 -3102.63 -3114.30 -3125.98 -3137.68 -3149.40 -3161.13 -3172.88
-1722.63 -1715.49 -1708.40 -1701.38 -1694.41 -1687.49 -1680.63 -1673.84 -1667.10 -1660.41 -1653.79 -1647.23 -1640.72 -1634.28 -1627.90 -1621.58 -1615.32 -1609.12 -1602.98 -1596.91 -1590.90 -1584.96 -1579.08 -1573.26 -1567.51 -1561.83 -1556.21 -1550.65 -1545.17 -1539.75 -1534.40 -1529.11 -1523.90 -1518.75 -1513.67 -1508.67 -1503.73 -1498.86 -1494.06 -1489.34 -1484.69 -1480.10 -1475.60 -1471.16 -1466.80 -1462.51 -1458.29 -1454.15 -1450.08 -1446.09 -1442.17 -1438.33 -1434.57 -1430.88 -1427.27 -1423.74 -1420.28 -1416.90 -1413.60 -1410.38 -1407.23 -1404.17 -1401.18 -1398.27 -1395.45 -1392.70 -1390.03 -1387.45 -1384.94 -1382.52 -1380.18 -1377.91 -1375.73 -1373.64 -1371.62 -1369.69 -1367.84 -1366.07 -1364.39 -1362.79 -1361.27 -1359.83 -1358.48 -1357.22 -1356.03 -1354.93 -1353.92 -1352.99 -1352.14 -1351.38 -1350.70 -1350.11 -1349.60 -1349.18 -1348.84 -1348.58 -1348.41 -1348.33 -1348.33 -1348.41 -1348.58 -1348.84 -1349.18 -1349.60 -1350.11 -1350.70 -1351.38 -1352.14 -1352.99 -1353.92 -1354.93 -1356.03 -1357.22 -1358.48 -1359.83 -1361.27 -1362.79 -1364.39 -1366.07 -1367.84 -1369.69 -1371.62 -1373.64 -1375.73 -1377.91 -1380.18 -1382.52 -1384.94 -1387.45 -1390.03 -1392.70 -1395.45 -1398.27 -1401.18 -1404.17 -1407.23 -1410.38 -1413.60 -1416.90 -1420.28 -1423.74 -1427.27 -1430.88 -1434.57 -1438.33 -1442.17 -1446.09 -1450.08 -1454.15 -1458.29 -1462.51 -1466.80 -1471.16 -1475.60 -1480.10 -1484.69 -1489.34 -1494.06 -1498.86 -1503.73 -1508.67 -1513.67 -1518.75 -1523.90 -1529.11 -1534.40 -1539.75 -1545.17 -1550.65 -1556.21 -1561.83 -1567.51 -1573.26 -1579.08 -1584.96 -1590.90 -1596.91 -1602.98 -1609.12 -1615.32 -1621.58 -1627.90 -1634.28 -1640.72 -1647.23 -1653.79 -1660.41 -1667.10 -1673.84 -1680.63 -1687.49 -1694.41 -1701.38 -1708.40 -1715.49 -1722.63 -1729.82 -1737.07 -1744.37 -1751.73 -1759.14 -1766.61 -1774.12 -1781.69 -1789.31 -1796.99 -1804.71 -1812.48 -1820.31 -1828.18 -1836.11 -1844.08 -1852.10 -1860.17 -1868.29 -1876.45 -1884.67 -1892.93 -1901.23 -1909.58 -1917.98 -1926.42 -1934.91 -1943.44 -1952.01 -1960.63 -1969.29 -1978.00 -1986.75 -1995.54 -2004.37 -2013.24 -2022.15 -2031.11 -2040.10 -2049.14 -2058.21 -2067.33 -2076.48 -2085.67 -2094.90 -2104.17 -2113.48 -2122.82 -2132.20 -2141.62 -2151.07 -2160.56 -2170.09 -2179.65 -2189.25 -2198.88 -2208.54 -2218.24 -2227.98 -2237.74 -2247.54 -2257.38 -2267.24 -2277.14 -2287.07 -2297.04 -2307.03 -2317.06 -2327.11 -2337.20 -2347.32 -2357.47 -2367.65 -2377.86 -2388.09 -2398.36 -2408.66 -2418.98 -2429.33 -2439.71 -2450.12 -2460.56 -2471.02 -2481.52 -2492.03 -2502.58 -2513.15 -2523.75 -2534.37 -2545.02 -2555.70 -2566.40 -2577.12 -2587.87 -2598.65 -2609.45 -2620.27 -2631.12 -2641.99 -2652.89 -2663.81 -2674.75 -2685.72 -2696.70 -2707.71 -2718.75 -2729.80 -2740.88 -2751.98 -2763.10 -2774.24 -2785.41 -2796.59 -2807.80 -2819.02 -2830.27 -2841.54 -2852.82 -2864.13 -2875.46 -2886.81 -2898.17 -2909.56 -2920.96 -2932.39 -2943.83 -2955.29 -2966.77 -2978.27 -2989.79 -3001.33 -3012.88 -3024.45 -3036.04 -3047.64 -3059.27 -3070.91 -3082.56 -3094.24 -3105.93 -3117.64 -3129.36 -3141.10 -3152.86 -3164.63
-1710.18 -1703.01 -1695.89 -1688.83 -1681.83 -1674.88 -1667.99 -1661.16 -1654.39 -1647.68 -1641.03 -1634.43 -1627.90 -1621.42 -1615.01 -1608.66 -1602.37 -1596.14 -1589.98 -1583.88 -1577.84 -1571.86 -1565.96 -1560.11 -1554.33 -1548.62 -1542.97 -1537.39 -1531.87 -1526.43 -1521.05 -1515.74 -1510.49 -1505.32 -1500.22 -1495.18 -1490.22 -1485.33 -1480.51 -1475.76 -1471.08 -1466.47 -1461.94 -1457.48 -1453.09 -1448.78 -1444.54 -1440.38 -1436.29 -1432.28 -1428.34 -1424.48 -1420.69 -1416.98 -1413.35 -1409.80 -1406.32 -1402.92 -1399.60 -1396.36 -1393.20 -1390.12 -1387.11 -1384.19 -1381.35 -1378.58 -1375.90 -1373.30 -1370.78 -1368.34 -1365.99 -1363.71 -1361.52 -1359.41 -1357.39 -1355.44 -1353.58 -1351.80 -1350.11 -1348.50 -1346.97 -1345.53 -1344.17 -1342.90 -1341.71 -1340.60 -1339.58 -1338.64 -1337.79 -1337.02 -1336.34 -1335.75 -1335.23 -1334.81 -1334.47 -1334.21 -1334.04 -1333.96 -1333.96 -1334.04 -1334.21 -1334.47 -1334.81 -1335.23 -1335.75 -1336.34 -1337.02 -1337.79 -1338.64 -1339.58 -1340.60 -1341.71 -1342.90 -1344.17 -1345.53 -1346.97 -1348.50 -1350.11 -1351.80 -1353.58 -1355.44 -1357.39 -1359.41 -1361.52 -1363.71 -1365.99 -1368.34 -1370.78 -1373.30 -1375.90 -1378.58 -1381.35 -1384.19 -1387.11 -1390.12 -1393.20 -1396.36 -1399.60 -1402.92 -1406.32 -1409.80 -1413.35 -1416.98 -1420.69 -1424.48 -1428.34 -1432.28 -1436.29 -1440.38 -1444.54 -1448.78 -1453.09 -1457.48 -1461.94 -1466.47 -1471.08 -1475.76 -1480.51 -1485.33 -1490.22 -1495.18 -1500.22 -1505.32 -1510.49 -1515.74 -1521.05 -1526.43 -1531.87 -1537.39 -1542.97 -1548.62 -1554.33 -1560.11 -1565.96 -1571.86 -1577.84 -1583.88 -1589.98 -1596.14 -1602.37 -1608.66 -1615.01 -1621.42 -1627.90 -1634.43 -1641.03 -1647.68 -1654.39 -1661.16 -1667.99 -1674.88 -1681.83 -1688.83 -1695.89 -1703.01 -1710.18 -1717.40 -1724.68 -1732.02 -1739.41 -1746.85 -1754.35 -1761.90 -1769.50 -1777.15 -1784.86 -1792.61 -1800.42 -1808.28 -1816.19 -1824.14 -1832.15 -1840.20 -1848.30 -1856.46 -1864.65 -1872.90 -1881.19 -1889.53 -1897.91 -1906.34 -1914.82 -1923.33 -1931.90 -1940.51 -1949.16 -1957.85 -1966.59 -1975.37 -1984.19 -1993.06 -2001.96 -2010.91 -2019.89 -2028.92 -2037.99 -2047.10 -2056.24 -2065.43 -2074.65 -2083.92 -2093.22 -2102.55 -2111.93 -2121.34 -2130.79 -2140.28 -2149.80 -2159.35 -2168.95 -2178.57 -2188.24 -2197.93 -2207.66 -2217.43 -2227.23 -2237.06 -2246.92 -2256.82 -2266.75 -2276.71 -2286.71 -2296.73 -2306.79 -2316.88 -2326.99 -2337.14 -2347.32 -2357.53 -2367.77 -2378.03 -2388.33 -2398.66 -2409.01 -2419.39 -2429.80 -2440.24 -2450.71 -2461.20 -2471.72 -2482.27 -2492.84 -2503.44 -2514.07 -2524.72 -2535.40 -2546.10 -2556.83 -2567.59 -2578.36 -2589.17 -2599.99 -2610.85 -2621.72 -2632.62 -2643.54 -2654.49 -2665.46 -2676.45 -2687.47 -2698.50 -2709.56 -2720.65 -2731.75 -2742.88 -2754.02 -2765.19 -2776.38 -2787.59 -2798.82 -2810.08 -2821.35 -2832.64 -2843.95 -2855.29 -2866.64 -2878.01 -2889.40 -2900.82 -2912.25 -2923.69 -2935.16 -2946.65 -2958.15 -2969.68 -2981.22 -2992.78 -3004.36 -3015.95 -3027.56 -3039.19 -3050.84 -3062.50 -3074.18 -3085.88 -3097.60 -3109.33 -3121.08 -3132.84 -3144.62 -3156.41
-1697.74 -1690.54 -1683.39 -1676.30 -1669.27 -1662.29 -1655.37 -1648.51 -1641.71 -1634.96 -1628.28 -1621.65 -1615.09 -1608.58 -1602.14 -1595.76 -1589.44 -1583.18 -1576.99 -1570.85 -1564.79 -1558.78 -1552.84 -1546.97 -1541.16 -1535.42 -1529.74 -1524.13 -1518.59 -1513.12 -1507.71 -1502.37 -1497.10 -1491.90 -1486.77 -1481.71 -1476.72 -1471.80 -1466.96 -1462.18 -1457.48 -1452.85 -1448.29 -1443.81 -1439.40 -1435.06 -1430.80 -1426.61 -1422.50 -1418.47 -1414.51 -1410.62 -1406.82 -1403.09 -1399.44 -1395.86 -1392.37 -1388.95 -1385.61 -1382.35 -1379.17 -1376.07 -1373.05 -1370.11 -1367.25 -1364.47 -1361.78 -1359.16 -1356.63 -1354.17 -1351.80 -1349.52 -1347.31 -1345.19 -1343.15 -1341.20 -1339.32 -1337.54 -1335.83 -1334.21 -1332.68 -1331.22 -1329.86 -1328.58 -1327.38 -1326.27 -1325.24 -1324.30 -1323.44 -1322.67 -1321.98 -1321.38 -1320.87 -1320.44 -1320.10 -1319.84 -1319.67 -1319.58 -1319.58 -1319.67 -1319.84 -1320.10 -1320.44 -1320.87 -1321.38 -1321.98 -1322.67 -1323.44 -1324.30 -1325.24 -1326.27 -1327.38 -1328.58 -1329.86 -1331.22 -1332.68 -1334.21 -1335.83 -1337.54 -1339.32 -1341.20 -1343.15 -1345.19 -1347.31 -1349.52 -1351.80 -1354.17 -1356.63 -1359.16 -1361.78 -1364.47 -1367.25 -1370.11 -1373.05 -1376.07 -1379.17 -1382.35 -1385.61 -1388.95 -1392.37 -1395.86 -1399.44 -1403.09 -1406.82 -1410.62 -1414.51 -1418.47 -1422.50 -1426.61 -1430.80 -1435.06 -1439.40 -1443.81 -1448.29 -1452.85 -1457.48 -1462.18 -1466.96 -1471.80 -1476.72 -1481.71 -1486.77 -1491.90 -1497.10 -1502.37 -1507.71 -1513.12 -1518.59 -1524.13 -1529.74 -1535.42 -1541.16 -1546.97 -1552.84 -1558.78 -1564.79 -1570.85 -1576.99 -1583.18 -1589.44 -1595.76 -1602.14 -1608.58 -1615.09 -1621.65 -1628.28 -1634.96 -1641.71 -1648.51 -1655.37 -1662.29 -1669.27 -1676.30 -1683.39 -1690.54 -1697.74 -1705.00 -1712.32 -1719.68 -1727.11 -1734.58 -1742.11 -1749.69 -1757.33 -1765.01 -1772.75 -1780.54 -1788.38 -1796.27 -1804.21 -1812.20 -1820.24 -1828.32 -1836.46 -1844.64 -1852.87 -1861.15 -1869.48 -1877.85 -1886.26 -1894.73 -1903.23 -1911.79 -1920.38 -1929.02 -1937.71 -1946.44 -1955.21 -1964.02 -1972.87 -1981.77 -1990.71 -1999.69 -2008.71 -2017.77 -2026.87 -2036.01 -2045.18 -2054.40 -2063.66 -2072.95 -2082.29 -2091.66 -2101.06 -2110.51 -2119.99 -2129.51 -2139.06 -2148.65 -2158.27 -2167.93 -2177.63 -2187.35 -2197.12 -2206.91 -2216.74 -2226.60 -2236.50 -2246.43 -2256.39 -2266.38 -2276.41 -2286.46 -2296.55 -2306.67 -2316.81 -2326.99 -2337.20 -2347.44 -2357.71 -2368.01 -2378.33 -2388.69 -2399.07 -2409.48 -2419.92 -2430.39 -2440.89 -2451.41 -2461.96 -2472.53 -2483.14 -2493.77 -2504.42 -2515.10 -2525.81 -2536.54 -2547.30 -2558.08 -2568.88 -2579.72 -2590.57 -2601.45 -2612.35 -2623.28 -2634.23 -2645.20 -2656.20 -2667.22 -2678.26 -2689.33 -2700.41 -2711.52 -2722.65 -2733.81 -2744.98 -2756.17 -2767.39 -2778.63 -2789.88 -2801.16 -2812.46 -2823.78 -2835.12 -2846.48 -2857.85 -2869.25 -2880.67 -2892.10 -2903.56 -2915.03 -2926.53 -2938.04 -2949.57 -2961.11 -2972.68 -2984.26 -2995.87 -3007.48 -3019.12 -3030.77 -3042.44 -3054.13 -3065.84 -3077.56 -3089.30 -3101.05 -3112.82 -3124.61 -3136.41 -3148.23
-1685.33 -1678.10 -1670.92 -1663.79 -1656.73 -1649.72 -1642.77 -1635.87 -1629.04 -1622.26 -1615.55 -1608.89 -1602.29 -1595.76 -1589.28 -1582.87 -1576.52 -1570.23 -1564.01 -1557.85 -1551.75 -1545.72 -1539.75 -1533.84 -1528.01 -1522.24 -1516.53 -1510.89 -1505.32 -1499.82 -1494.38 -1489.02 -1483.72 -1478.50 -1473.34 -1468.25 -1463.24 -1458.29 -1453.42 -1448.62 -1443.89 -1439.23 -1434.65 -1430.14 -1425.71 -1421.35 -1417.06 -1412.85 -1408.72 -1404.66 -1400.68 -1396.78 -1392.95 -1389.20 -1385.53 -1381.93 -1378.42 -1374.98 -1371.62 -1368.34 -1365.15 -1362.03 -1358.99 -1356.03 -1353.16 -1350.36 -1347.65 -1345.02 -1342.47 -1340.00 -1337.62 -1335.32 -1333.10 -1330.97 -1328.92 -1326.95 -1325.07 -1323.27 -1321.56 -1319.93 -1318.38 -1316.92 -1315.55 -1314.26 -1313.05 -1311.93 -1310.90 -1309.95 -1309.09 -1308.31 -1307.62 -1307.02 -1306.50 -1306.07 -1305.73 -1305.47 -1305.30 -1305.21 -1305.21 -1305.30 -1305.47 -1305.73 -1306.07 -1306.50 -1307.02 -1307.62 -1308.31 -1309.09 -1309.95 -1310.90 -1311.93 -1313.05 -1314.26 -1315.55 -1316.92 -1318.38 -1319.93 -1321.56 -1323.27 -1325.07 -1326.95 -1328.92 -1330.97 -1333.10 -1335.32 -1337.62 -1340.00 -1342.47 -1345.02 -1347.65 -1350.36 -1353.16 -1356.03 -1358.99 -1362.03 -1365.15 -1368.34 -1371.62 -1374.98 -1378.42 -1381.93 -1385.53 -1389.20 -1392.95 -1396.78 -1400.68 -1404.66 -1408.72 -1412.85 -1417.06 -1421.35 -1425.71 -1430.14 -1434.65 -1439.23 -1443.89 -1448.62 -1453.42 -1458.29 -1463.24 -1468.25 -1473.34 -1478.50 -1483.72 -1489.02 -1494.38 -1499.82 -1505.32 -1510.89 -1516.53 -1522.24 -1528.01 -1533.84 -1539.75 -1545.72 -1551.75 -1557.85 -1564.01 -1570.23 -1576.52 -1582.87 -1589.28 -1595.76 -1602.29 -1608.89 -1615.55 -1622.26 -1629.04 -1635.87 -1642.77 -1649.72 -1656.73 -1663.79 -1670.92 -1678.10 -1685.33 -1692.62 -1699.97 -1707.37 -1714.82 -1722.33 -1729.89 -1737.51 -1745.18 -1752.89 -1760.67 -1768.49 -1776.36 -1784.28 -1792.26 -1800.28 -1808.35 -1816.47 -1824.64 -1832.86 -1841.12 -1849.43 -1857.79 -1866.19 -1874.64 -1883.14 -1891.68 -1900.26 -1908.89 -1917.57 -1926.28 -1935.04 -1943.85 -1952.69 -1961.58 -1970.51 -1979.48 -1988.49 -1997.54 -2006.64 -2015.77 -2024.94 -2034.15 -2043.40 -2052.69 -2062.02 -2071.38 -2080.79 -2090.23 -2099.70 -2109.22 -2118.77 -2128.35 -2137.97 -2147.63 -2157.32 -2167.04 -2176.80 -2186.60 -2196.42 -2206.29 -2216.18 -2226.11 -2236.07 -2246.06 -2256.08 -2266.14 -2276.22 -2286.34 -2296.49 -2306.67 -2316.88 -2327.11 -2337.38 -2347.68 -2358.01 -2368.36 -2378.75 -2389.16 -2399.60 -2410.07 -2420.57 -2431.10 -2441.65 -2452.23 -2462.83 -2473.46 -2484.12 -2494.80 -2505.51 -2516.25 -2527.01 -2537.79 -2548.60 -2559.44 -2570.30 -2581.18 -2592.09 -2603.02 -2613.97 -2624.95 -2635.95 -2646.98 -2658.02 -2669.09 -2680.18 -2691.30 -2702.43 -2713.59 -2724.77 -2735.97 -2747.19 -2758.43 -2769.69 -2780.98 -2792.28 -2803.60 -2814.95 -2826.31 -2837.70 -2849.10 -2860.52 -2871.97 -2883.43 -2894.91 -2906.41 -2917.92 -2929.46 -2941.01 -2952.58 -2964.17 -2975.78 -2987.41 -2999.05 -3010.71 -3022.39 -3034.08 -3045.79 -3057.52 -3069.27 -3081.03 -3092.81 -3104.60 -3116.41 -3128.24 -3140.08
-1672.94 -1665.67 -1658.46 -1651.30 -1644.20 -1637.16 -1630.18 -1623.25 -1616.39 -1609.58 -1602.83 -1596.14 -1589.52 -1582.95 -1576.44 -1570.00 -1563.62 -1557.30 -1551.04 -1544.85 -1538.73 -1532.66 -1526.66 -1520.73 -1514.86 -1509.06 -1503.33 -1497.66 -1492.06 -1486.53 -1481.07 -1475.68 -1470.35 -1465.10 -1459.91 -1454.80 -1449.76 -1444.79 -1439.89 -1435.06 -1430.31 -1425.63 -1421.02 -1416.49 -1412.03 -1407.64 -1403.34 -1399.10 -1394.95 -1390.87 -1386.86 -1382.94 -1379.09 -1375.32 -1371.62 -1368.01 -1364.47 -1361.02 -1357.64 -1354.34 -1351.13 -1347.99 -1344.93 -1341.96 -1339.07 -1336.26 -1333.53 -1330.88 -1328.32 -1325.84 -1323.44 -1321.13 -1318.90 -1316.75 -1314.69 -1312.71 -1310.81 -1309.00 -1307.28 -1305.64 -1304.09 -1302.62 -1301.23 -1299.94 -1298.73 -1297.60 -1296.56 -1295.61 -1294.74 -1293.96 -1293.27 -1292.66 -1292.14 -1291.70 -1291.36 -1291.10 -1290.92 -1290.84 -1290.84 -1290.92 -1291.10 -1291.36 -1291.70 -1292.14 -1292.66 -1293.27 -1293.96 -1294.74 -1295.61 -1296.56 -1297.60 -1298.73 -1299.94 -1301.23 -1302.62 -1304.09 -1305.64 -1307.28 -1309.00 -1310.81 -1312.71 -1314.69 -1316.75 -1318.90 -1321.13 -1323.44 -1325.84 -1328.32 -1330.88 -1333.53 -1336.26 -1339.07 -1341.96 -1344.93 -1347.99 -1351.13 -1354.34 -1357.64 -1361.02 -1364.47 -1368.01 -1371.62 -1375.32 -1379.09 -1382.94 -1386.86 -1390.87 -1394.95 -1399.10 -1403.34 -1407.64 -1412.03 -1416.49 -1421.02 -1425.63 -1430.31 -1435.06 -1439.89 -1444.79 -1449.76 -1454.80 -1459.91 -1465.10 -1470.35 -1475.68 -1481.07 -1486.53 -1492.06 -1497.66 -1503.33 -1509.06 -1514.86 -1520.73 -1526.66 -1532.66 -1538.73 -1544.85 -1551.04 -1557.30 -1563.62 -1570.00 -1576.44 -1582.95 -1589.52 -1596.14 -1602.83 -1609.58 -1616.39 -1623.25 -1630.18 -1637.16 -1644.20 -1651.30 -1658.46 -1665.67 -1672.94 -1680.26 -1687.64 -1695.07 -1702.56 -1710.10 -1717.70 -1725.34 -1733.04 -1740.80 -1748.60 -1756.46 -1764.36 -1772.32 -1780.32 -1788.38 -1796.48 -1804.64 -1812.84 -1821.09 -1829.39 -1837.73 -1846.12 -1854.56 -1863.04 -1871.57 -1880.15 -1888.76 -1897.43 -1906.13 -1914.88 -1923.68 -1932.51 -1941.39 -1950.31 -1959.28 -1968.28 -1977.32 -1986.41 -1995.54 -2004.70 -2013.91 -2023.15 -2032.43 -2041.75 -2051.11 -2060.51 -2069.95 -2079.42 -2088.93 -2098.47 -2108.05 -2117.67 -2127.32 -2137.01 -2146.73 -2156.49 -2166.28 -2176.11 -2185.97 -2195.86 -2205.78 -2215.74 -2225.73 -2235.75 -2245.81 -2255.89 -2266.01 -2276.16 -2286.34 -2296.55 -2306.79 -2317.06 -2327.36 -2337.68 -2348.04 -2358.43 -2368.84 -2379.29 -2389.76 -2400.26 -2410.78 -2421.34 -2431.92 -2442.52 -2453.16 -2463.82 -2474.51 -2485.22 -2495.96 -2506.72 -2517.51 -2528.32 -2539.16 -2550.02 -2560.91 -2571.82 -2582.76 -2593.72 -2604.70 -2615.70 -2626.73 -2637.78 -2648.86 -2659.95 -2671.07 -2682.21 -2693.37 -2704.56 -2715.76 -2726.99 -2738.24 -2749.50 -2760.79 -2772.10 -2783.43 -2794.78 -2806.15 -2817.54 -2828.95 -2840.38 -2851.83 -2863.30 -2874.78 -2886.29 -2897.81 -2909.35 -2920.91 -2932.49 -2944.09 -2955.70 -2967.33 -2978.98 -2990.65 -3002.34 -3014.04 -3025.75 -3037.49 -3049.24 -3061.01 -3072.79 -3084.60 -3096.41 -3108.24 -3120.09 -3131.96
-1660.56 -1653.26 -1646.02 -1638.83 -1631.70 -1624.62 -1617.61 -1610.65 -1603.75 -1596.91 -1590.13 -1583.41 -1576.75 -1570.16 -1563.62 -1557.14 -1550.73 -1544.38 -1538.10 -1531.87 -1525.72 -1519.62 -1513.59 -1507.63 -1501.73 -1495.90 -1490.14 -1484.44 -1478.82 -1473.26 -1467.77 -1462.34 -1456.99 -1451.71 -1446.50 -1441.36 -1436.29 -1431.29 -1426.37 -1421.51 -1416.73 -1412.03 -1407.40 -1402.84 -1398.36 -1393.95 -1389.62 -1385.36 -1381.18 -1377.08 -1373.05 -1369.10 -1365.23 -1361.44 -1357.72 -1354.09 -1350.53 -1347.06 -1343.66 -1340.34 -1337.11 -1333.96 -1330.88 -1327.89 -1324.98 -1322.16 -1319.41 -1316.75 -1314.17 -1311.67 -1309.26 -1306.93 -1304.69 -1302.53 -1300.46 -1298.47 -1296.56 -1294.74 -1293.01 -1291.36 -1289.79 -1288.32 -1286.92 -1285.62 -1284.40 -1283.27 -1282.22 -1281.26 -1280.39 -1279.61 -1278.91 -1278.30 -1277.77 -1277.34 -1276.99 -1276.72 -1276.55 -1276.46 -1276.46 -1276.55 -1276.72 -1276.99 -1277.34 -1277.77 -1278.30 -1278.91 -1279.61 -1280.39 -1281.26 -1282.22 -1283.27 -1284.40 -1285.62 -1286.92 -1288.32 -1289.79 -1291.36 -1293.01 -1294.74 -1296.56 -1298.47 -1300.46 -1302.53 -1304.69 -1306.93 -1309.26 -1311.67 -1314.17 -1316.75 -1319.41 -1322.16 -1324.98 -1327.89 -1330.88 -1333.96 -1337.11 -1340.34 -1343.66 -1347.06 -1350.53 -1354.09 -1357.72 -1361.44 -1365.23 -1369.10 -1373.05 -1377.08 -1381.18 -1385.36 -1389.62 -1393.95 -1398.36 -1402.84 -1407.40 -1412.03 -1416.73 -1421.51 -1426.37 -1431.29 -1436.29 -1441.36 -1446.50 -1451.71 -1456.99 -1462.34 -1467.77 -1473.26 -1478.82 -1484.44 -1490.14 -1495.90 -1501.73 -1507.63 -1513.59 -1519.62 -1525.72 -1531.87 -1538.10 -1544.38 -1550.73 -1557.14 -1563.62 -1570.16 -1576.75 -1583.41 -1590.13 -1596.91 -1603.75 -1610.65 -1617.61 -1624.62 -1631.70 -1638.83 -1646.02 -1653.26 -1660.56 -1667.92 -1675.33 -1682.80 -1690.32 -1697.89 -1705.52 -1713.20 -1720.94 -1728.72 -1736.56 -1744.45 -1752.39 -1760.38 -1768.41 -1776.50 -1784.64 -1792.83 -1801.07 -1809.35 -1817.68 -1826.06 -1834.48 -1842.95 -1851.47 -1860.03 -1868.64 -1877.29 -1885.99 -1894.73 -1903.51 -1912.34 -1921.21 -1930.12 -1939.07 -1948.07 -1957.11 -1966.18 -1975.30 -1984.46 -1993.66 -2002.90 -2012.17 -2021.49 -2030.84 -2040.24 -2049.67 -2059.13 -2068.64 -2078.18 -2087.76 -2097.37 -2107.02 -2116.70 -2126.42 -2136.18 -2145.97 -2155.79 -2165.65 -2175.54 -2185.46 -2195.42 -2205.41 -2215.43 -2225.48 -2235.57 -2245.68 -2255.83 -2266.01 -2276.22 -2286.46 -2296.73 -2307.03 -2317.36 -2327.72 -2338.11 -2348.52 -2358.97 -2369.44 -2379.94 -2390.47 -2401.03 -2411.61 -2422.22 -2432.86 -2443.52 -2454.21 -2464.92 -2475.67 -2486.43 -2497.22 -2508.04 -2518.88 -2529.75 -2540.64 -2551.56 -2562.50 -2573.46 -2584.44 -2595.45 -2606.49 -2617.54 -2628.62 -2639.72 -2650.85 -2661.99 -2673.16 -2684.35 -2695.56 -2706.79 -2718.04 -2729.32 -2740.61 -2751.93 -2763.26 -2774.62 -2785.99 -2797.39 -2808.80 -2820.24 -2831.69 -2843.17 -2854.66 -2866.17 -2877.70 -2889.25 -2900.82 -2912.40 -2924.00 -2935.62 -2947.26 -2958.92 -2970.59 -2982.28 -2993.99 -3005.72 -3017.46 -3029.22 -3040.99 -3052.79 -3064.59 -3076.42 -3088.26 -3100.11 -3111.98 -3123.87
-1648.21 -1640.87 -1633.60 -1626.38 -1619.21 -1612.11 -1605.06 -1598.07 -1591.14 -1584.26 -1577.45 -1570.70 -1564.01 -1557.38 -1550.81 -1544.30 -1537.86 -1531.48 -1525.16 -1518.91 -1512.72 -1506.60 -1500.54 -1494.54 -1488.62 -1482.76 -1476.97 -1471.24 -1465.58 -1459.99 -1454.47 -1449.02 -1443.64 -1438.33 -1433.10 -1427.93 -1422.83 -1417.81 -1412.85 -1407.98 -1403.17 -1398.44 -1393.78 -1389.20 -1384.69 -1380.26 -1375.90 -1371.62 -1367.42 -1363.29 -1359.24 -1355.27 -1351.38 -1347.57 -1343.83 -1340.17 -1336.60 -1333.10 -1329.69 -1326.35 -1323.10 -1319.93 -1316.83 -1313.83 -1310.90 -1308.06 -1305.30 -1302.62 -1300.02 -1297.51 -1295.09 -1292.75 -1290.49 -1288.32 -1286.23 -1284.23 -1282.31 -1280.48 -1278.73 -1277.07 -1275.50 -1274.01 -1272.61 -1271.30 -1270.08 -1268.94 -1267.88 -1266.92 -1266.04 -1265.25 -1264.55 -1263.93 -1263.41 -1262.97 -1262.62 -1262.35 -1262.18 -1262.09 -1262.09 -1262.18 -1262.35 -1262.62 -1262.97 -1263.41 -1263.93 -1264.55 -1265.25 -1266.04 -1266.92 -1267.88 -1268.94 -1270.08 -1271.30 -1272.61 -1274.01 -1275.50 -1277.07 -1278.73 -1280.48 -1282.31 -1284.23 -1286.23 -1288.32 -1290.49 -1292.75 -1295.09 -1297.51 -1300.02 -1302.62 -1305.30 -1308.06 -1310.90 -1313.83 -1316.83 -1319.93 -1323.10 -1326.35 -1329.69 -1333.10 -1336.60 -1340.17 -1343.83 -1347.57 -1351.38 -1355.27 -1359.24 -1363.29 -1367.42 -1371.62 -1375.90 -1380.26 -1384.69 -1389.20 -1393.78 -1398.44 -1403.17 -1407.98 -1412.85 -1417.81 -1422.83 -1427.93 -1433.10 -1438.33 -1443.64 -1449.02 -1454.47 -1459.99 -1465.58 -1471.24 -1476.97 -1482.76 -1488.62 -1494.54 -1500.54 -1506.60 -1512.72 -1518.91 -1525.16 -1531.48 -1537.86 -1544.30 -1550.81 -1557.38 -1564.01 -1570.70 -1577.45 -1584.26 -1591.14 -1598.07 -1605.06 -1612.11 -1619.21 -1626.38 -1633.60 -1640.87 -1648.21 -1655.60 -1663.04 -1670.54 -1678.10 -1685.70 -1693.37 -1701.08 -1708.85 -1716.67 -1724.54 -1732.46 -1740.43 -1748.46 -1756.53 -1764.65 -1772.82 -1781.04 -1789.31 -1797.63 -1806.00 -1814.41 -1822.87 -1831.37 -1839.92 -1848.52 -1857.16 -1865.84 -1874.57 -1883.35 -1892.16 -1901.02 -1909.93 -1918.87 -1927.86 -1936.89 -1945.96 -1955.07 -1964.22 -1973.41 -1982.64 -1991.92 -2001.23 -2010.57 -2019.96 -2029.39 -2038.85 -2048.35 -2057.89 -2067.46 -2077.07 -2086.71 -2096.40 -2106.11 -2115.87 -2125.65 -2135.47 -2145.33 -2155.22 -2165.14 -2175.09 -2185.08 -2195.10 -2205.16 -2215.24 -2225.36 -2235.51 -2245.68 -2255.89 -2266.14 -2276.41 -2286.71 -2297.04 -2307.40 -2317.79 -2328.20 -2338.65 -2349.12 -2359.63 -2370.16 -2380.72 -2391.30 -2401.91 -2412.55 -2423.22 -2433.91 -2444.63 -2455.37 -2466.15 -2476.94 -2487.76 -2498.61 -2509.48 -2520.37 -2531.29 -2542.23 -2553.20 -2564.19 -2575.21 -2586.24 -2597.30 -2608.39 -2619.49 -2630.62 -2641.77 -2652.94 -2664.14 -2675.35 -2686.59 -2697.85 -2709.13 -2720.43 -2731.75 -2743.09 -2754.45 -2765.84 -2777.24 -2788.66 -2800.10 -2811.56 -2823.04 -2834.54 -2846.06 -2857.59 -2869.15 -2880.72 -2892.31 -2903.92 -2915.55 -2927.20 -2938.86 -2950.54 -2962.24 -2973.95 -2985.68 -2997.43 -3009.20 -3020.98 -3032.78 -3044.59 -3056.43 -3068.27 -3080.14 -3092.02 -3103.91 -3115.82
-1635.87 -1628.51 -1621.20 -1613.94 -1606.74 -1599.60 -1592.52 -1585.50 -1578.54 -1571.63 -1564.79 -1558.00 -1551.28 -1544.62 -1538.02 -1531.48 -1525.00 -1518.59 -1512.24 -1505.96 -1499.74 -1493.58 -1487.50 -1481.47 -1475.51 -1469.62 -1463.80 -1458.05 -1452.36 -1446.74 -1441.19 -1435.72 -1430.31 -1424.97 -1419.70 -1414.51 -1409.38 -1404.33 -1399.35 -1394.45 -1389.62 -1384.86 -1380.18 -1375.57 -1371.03 -1366.58 -1362.20 -1357.89 -1353.67 -1349.52 -1345.44 -1341.45 -1337.54 -1333.70 -1329.94 -1326.27 -1322.67 -1319.15 -1315.72 -1312.36 -1309.09 -1305.90 -1302.79 -1299.76 -1296.82 -1293.96 -1291.18 -1288.49 -1285.88 -1283.35 -1280.91 -1278.56 -1276.29 -1274.10 -1272.00 -1269.99 -1268.06 -1266.22 -1264.46 -1262.79 -1261.21 -1259.71 -1258.31 -1256.98 -1255.75 -1254.60 -1253.55 -1252.58 -1251.69 -1250.90 -1250.19 -1249.57 -1249.04 -1248.60 -1248.25 -1247.98 -1247.80 -1247.72 -1247.72 -1247.80 -1247.98 -1248.25 -1248.60 -1249.04 -1249.57 -1250.19 -1250.90 -1251.69 -1252.58 -1253.55 -1254.60 -1255.75 -1256.98 -1258.31 -1259.71 -1261.21 -1262.79 -1264.46 -1266.22 -1268.06 -1269.99 -1272.00 -1274.10 -1276.29 -1278.56 -1280.91 -1283.35 -1285.88 -1288.49 -1291.18 -1293.96 -1296.82 -1299.76 -1302.79 -1305.90 -1309.09 -1312.36 -1315.72 -1319.15 -1322.67 -1326.27 -1329.94 -1333.70 -1337.54 -1341.45 -1345.44 -1349.52 -1353.67 -1357.89 -1362.20 -1366.58 -1371.03 -1375.57 -1380.18 -1384.86 -1389.62 -1394.45 -1399.35 -1404.33 -1409.38 -1414.51 -1419.70 -1424.97 -1430.31 -1435.72 -1441.19 -1446.74 -1452.36 -1458.05 -1463.80 -1469.62 -1475.51 -1481.47 -1487.50 -1493.58 -1499.74 -1505.96 -1512.24 -1518.59 -1525.00 -1531.48 -1538.02 -1544.62 -1551.28 -1558.00 -1564.79 -1571.63 -1578.54 -1585.50 -1592.52 -1599.60 -1606.74 -1613.94 -1621.20 -1628.51 -1635.87 -1643.30 -1650.77 -1658.31 -1665.90 -1673.54 -1681.23 -1688.98 -1696.78 -1704.63 -1712.54 -1720.49 -1728.50 -1736.56 -1744.67 -1752.82 -1761.03 -1769.28 -1777.59 -1785.94 -1794.34 -1802.78 -1811.27 -1819.81 -1828.40 -1837.03 -1845.70 -1854.42 -1863.18 -1871.99 -1880.84 -1889.74 -1898.67 -1907.65 -1916.67 -1925.74 -1934.84 -1943.98 -1953.17 -1962.39 -1971.66 -1980.96 -1990.30 -1999.69 -2009.11 -2018.56 -2028.06 -2037.59 -2047.16 -2056.77 -2066.41 -2076.09 -2085.80 -2095.55 -2105.34 -2115.16 -2125.01 -2134.90 -2144.82 -2154.77 -2164.76 -2174.78 -2184.83 -2194.91 -2205.03 -2215.18 -2225.36 -2235.57 -2245.81 -2256.08 -2266.38 -2276.71 -2287.07 -2297.46 -2307.88 -2318.33 -2328.81 -2339.31 -2349.85 -2360.41 -2370.99 -2381.61 -2392.25 -2402.92 -2413.62 -2424.34 -2435.08 -2445.86 -2456.66 -2467.48 -2478.33 -2489.21 -2500.10 -2511.03 -2521.98 -2532.95 -2543.94 -2554.96 -2566.00 -2577.07 -2588.16 -2599.27 -2610.40 -2621.55 -2632.73 -2643.93 -2655.15 -2666.40 -2677.66 -2688.94 -2700.25 -2711.58 -2722.92 -2734.29 -2745.68 -2757.09 -2768.51 -2779.96 -2791.43 -2802.91 -2814.42 -2825.94 -2837.49 -2849.05 -2860.63 -2872.23 -2883.84 -2895.48 -2907.13 -2918.80 -2930.49 -2942.19 -2953.91 -2965.65 -2977.41 -2989.18 -3000.97 -3012.78 -3024.60 -3036.44 -3048.29 -3060.16 -3072.05 -3083.95 -3095.87 -3107.80
-1623.56 -1616.16 -1608.81 -1601.53 -1594.30 -1587.12 -1580.01 -1572.95 -1565.96 -1559.02 -1552.14 -1545.32 -1538.57 -1531.87 -1525.24 -1518.67 -1512.16 -1505.72 -1499.34 -1493.02 -1486.77 -1480.59 -1474.47 -1468.41 -1462.43 -1456.51 -1450.65 -1444.87 -1439.15 -1433.50 -1427.93 -1422.42 -1416.98 -1411.62 -1406.32 -1401.10 -1395.94 -1390.87 -1385.86 -1380.93 -1376.07 -1371.29 -1366.58 -1361.94 -1357.39 -1352.90 -1348.50 -1344.17 -1339.92 -1335.75 -1331.65 -1327.64 -1323.70 -1319.84 -1316.06 -1312.36 -1308.75 -1305.21 -1301.75 -1298.38 -1295.09 -1291.88 -1288.75 -1285.71 -1282.74 -1279.87 -1277.07 -1274.36 -1271.74 -1269.20 -1266.74 -1264.37 -1262.09 -1259.89 -1257.78 -1255.75 -1253.81 -1251.96 -1250.19 -1248.51 -1246.92 -1245.41 -1244.00 -1242.67 -1241.43 -1240.27 -1239.21 -1238.23 -1237.34 -1236.54 -1235.83 -1235.21 -1234.68 -1234.23 -1233.88 -1233.61 -1233.43 -1233.34 -1233.34 -1233.43 -1233.61 -1233.88 -1234.23 -1234.68 -1235.21 -1235.83 -1236.54 -1237.34 -1238.23 -1239.21 -1240.27 -1241.43 -1242.67 -1244.00 -1245.41 -1246.92 -1248.51 -1250.19 -1251.96 -1253.81 -1255.75 -1257.78 -1259.89 -1262.09 -1264.37 -1266.74 -1269.20 -1271.74 -1274.36 -1277.07 -1279.87 -1282.74 -1285.71 -1288.75 -1291.88 -1295.09 -1298.38 -1301.75 -1305.21 -1308.75 -1312.36 -1316.06 -1319.84 -1323.70 -1327.64 -1331.65 -1335.75 -1339.92 -1344.17 -1348.50 -1352.90 -1357.39 -1361.94 -1366.58 -1371.29 -1376.07 -1380.93 -1385.86 -1390.87 -1395.94 -1401.10 -1406.32 -1411.62 -1416.98 -1422.42 -1427.93 -1433.50 -1439.15 -1444.87 -1450.65 -1456.51 -1462.43 -1468.41 -1474.47 -1480.59 -1486.77 -1493.02 -1499.34 -1505.72 -1512.16 -1518.67 -1525.24 -1531.87 -1538.57 -1545.32 -1552.14 -1559.02 -1565.96 -1572.95 -1580.01 -1587.12 -1594.30 -1601.53 -1608.81 -1616.16 -1623.56 -1631.01 -1638.53 -1646.09 -1653.71 -1661.39 -1669.12 -1676.90 -1684.74 -1692.62 -1700.56 -1708.55 -1716.59 -1724.68 -1732.83 -1741.02 -1749.26 -1757.55 -1765.88 -1774.27 -1782.70 -1791.18 -1799.71 -1808.28 -1816.90 -1825.56 -1834.27 -1843.02 -1851.82 -1860.66 -1869.55 -1878.47 -1887.45 -1896.46 -1905.51 -1914.61 -1923.75 -1932.92 -1942.14 -1951.40 -1960.70 -1970.04 -1979.41 -1988.83 -1998.28 -2007.77 -2017.30 -2026.87 -2036.47 -2046.11 -2055.78 -2065.49 -2075.24 -2085.02 -2094.84 -2104.69 -2114.58 -2124.49 -2134.45 -2144.43 -2154.45 -2164.50 -2174.59 -2184.70 -2194.85 -2205.03 -2215.24 -2225.48 -2235.75 -2246.06 -2256.39 -2266.75 -2277.14 -2287.56 -2298.01 -2308.49 -2319.00 -2329.53 -2340.10 -2350.69 -2361.30 -2371.95 -2382.62 -2393.32 -2404.04 -2414.80 -2425.57 -2436.37 -2447.20 -2458.06 -2468.93 -2479.84 -2490.76 -2501.72 -2512.69 -2523.69 -2534.71 -2545.76 -2556.83 -2567.92 -2579.04 -2590.18 -2601.34 -2612.52 -2623.73 -2634.95 -2646.20 -2657.47 -2668.76 -2680.07 -2691.40 -2702.76 -2714.13 -2725.53 -2736.94 -2748.37 -2759.83 -2771.30 -2782.79 -2794.30 -2805.83 -2817.38 -2828.95 -2840.54 -2852.14 -2863.77 -2875.41 -2887.07 -2898.74 -2910.44 -2922.15 -2933.88 -2945.63 -2957.39 -2969.17 -2980.96 -2992.78 -3004.61 -3016.45 -3028.32 -3040.19 -3052.09 -3064.00 -3075.92 -3087.86 -3099.82
-1611.26 -1603.83 -1596.45 -1589.13 -1581.87 -1574.66 -1567.51 -1560.42 -1553.39 -1546.42 -1539.51 -1532.66 -1525.87 -1519.15 -1512.48 -1505.88 -1499.34 -1492.86 -1486.45 -1480.10 -1473.82 -1467.60 -1461.45 -1455.37 -1449.35 -1443.40 -1437.52 -1431.70 -1425.96 -1420.28 -1414.67 -1409.13 -1403.67 -1398.27 -1392.95 -1387.70 -1382.52 -1377.41 -1372.38 -1367.42 -1362.53 -1357.72 -1352.99 -1348.33 -1343.75 -1339.24 -1334.81 -1330.46 -1326.18 -1321.98 -1317.87 -1313.83 -1309.87 -1305.99 -1302.19 -1298.47 -1294.83 -1291.27 -1287.79 -1284.40 -1281.09 -1277.86 -1274.71 -1271.65 -1268.67 -1265.78 -1262.97 -1260.24 -1257.60 -1255.05 -1252.58 -1250.19 -1247.89 -1245.68 -1243.55 -1241.52 -1239.56 -1237.70 -1235.92 -1234.23 -1232.63 -1231.12 -1229.69 -1228.35 -1227.10 -1225.94 -1224.87 -1223.89 -1222.99 -1222.19 -1221.47 -1220.85 -1220.31 -1219.86 -1219.51 -1219.24 -1219.06 -1218.97 -1218.97 -1219.06 -1219.24 -1219.51 -1219.86 -1220.31 -1220.85 -1221.47 -1222.19 -1222.99 -1223.89 -1224.87 -1225.94 -1227.10 -1228.35 -1229.69 -1231.12 -1232.63 -1234.23 -1235.92 -1237.70 -1239.56 -1241.52 -1243.55 -1245.68 -1247.89 -1250.19 -1252.58 -1255.05 -1257.60 -1260.24 -1262.97 -1265.78 -1268.67 -1271.65 -1274.71 -1277.86 -1281.09 -1284.40 -1287.79 -1291.27 -1294.83 -1298.47 -1302.19 -1305.99 -1309.87 -1313.83 -1317.87 -1321.98 -1326.18 -1330.46 -1334.81 -1339.24 -1343.75 -1348.33 -1352.99 -1357.72 -1362.53 -1367.42 -1372.38 -1377.41 -1382.52 -1387.70 -1392.95 -1398.27 -1403.67 -1409.13 -1414.67 -1420.28 -1425.96 -1431.70 -1437.52 -1443.40 -1449.35 -1455.37 -1461.45 -1467.60 -1473.82 -1480.10 -1486.45 -1492.86 -1499.34 -1505.88 -1512.48 -1519.15 -1525.87 -1532.66 -1539.51 -1546.42 -1553.39 -1560.42 -1567.51 -1574.66 -1581.87 -1589.13 -1596.45 -1603.83 -1611.26 -1618.75 -1626.30 -1633.90 -1641.56 -1649.27 -1657.03 -1664.84 -1672.71 -1680.63 -1688.61 -1696.63 -1704.71 -1712.83 -1721.01 -1729.23 -1737.51 -1745.83 -1754.20 -1762.62 -1771.09 -1779.60 -1788.16 -1796.77 -1805.42 -1814.12 -1822.87 -1831.65 -1840.48 -1849.36 -1858.28 -1867.24 -1876.25 -1885.29 -1894.38 -1903.51 -1912.68 -1921.89 -1931.15 -1940.44 -1949.77 -1959.14 -1968.55 -1978.00 -1987.48 -1997.01 -2006.57 -2016.17 -2025.80 -2035.48 -2045.18 -2054.93 -2064.71 -2074.52 -2084.37 -2094.25 -2104.17 -2114.12 -2124.11 -2134.13 -2144.18 -2154.26 -2164.38 -2174.52 -2184.70 -2194.91 -2205.16 -2215.43 -2225.73 -2236.07 -2246.43 -2256.82 -2267.24 -2277.70 -2288.18 -2298.68 -2309.22 -2319.79 -2330.38 -2341.00 -2351.65 -2362.32 -2373.02 -2383.75 -2394.51 -2405.29 -2416.09 -2426.92 -2437.78 -2448.66 -2459.57 -2470.50 -2481.46 -2492.44 -2503.44 -2514.47 -2525.52 -2536.60 -2547.69 -2558.81 -2569.96 -2581.12 -2592.31 -2603.52 -2614.75 -2626.01 -2637.28 -2648.58 -2659.90 -2671.23 -2682.59 -2693.97 -2705.37 -2716.79 -2728.23 -2739.69 -2751.17 -2762.67 -2774.19 -2785.73 -2797.28 -2808.86 -2820.45 -2832.06 -2843.69 -2855.34 -2867.01 -2878.69 -2890.39 -2902.11 -2913.85 -2925.60 -2937.37 -2949.16 -2960.96 -2972.78 -2984.62 -2996.47 -3008.34 -3020.23 -3032.13 -3044.04 -3055.98 -3067.93 -3079.89 -3091.87
-1598.99 -1591.52 -1584.11 -1576.75 -1569.46 -1562.22 -1555.03 -1547.91 -1540.85 -1533.84 -1526.90 -1520.02 -1513.20 -1506.44 -1499.74 -1493.10 -1486.53 -1480.02 -1473.58 -1467.20 -1460.89 -1454.64 -1448.45 -1442.34 -1436.29 -1430.31 -1424.39 -1418.55 -1412.77 -1407.07 -1401.43 -1395.86 -1390.37 -1384.94 -1379.59 -1374.31 -1369.10 -1363.97 -1358.91 -1353.92 -1349.01 -1344.17 -1339.41 -1334.72 -1330.11 -1325.58 -1321.13 -1316.75 -1312.45 -1308.23 -1304.09 -1300.02 -1296.04 -1292.14 -1288.32 -1284.57 -1280.91 -1277.34 -1273.84 -1270.43 -1267.09 -1263.85 -1260.68 -1257.60 -1254.60 -1251.69 -1248.86 -1246.12 -1243.47 -1240.89 -1238.41 -1236.01 -1233.70 -1231.47 -1229.33 -1227.28 -1225.32 -1223.44 -1221.65 -1219.95 -1218.34 -1216.82 -1215.38 -1214.04 -1212.78 -1211.61 -1210.53 -1209.55 -1208.65 -1207.84 -1207.12 -1206.49 -1205.95 -1205.50 -1205.14 -1204.87 -1204.69 -1204.60 -1204.60 -1204.69 -1204.87 -1205.14 -1205.50 -1205.95 -1206.49 -1207.12 -1207.84 -1208.65 -1209.55 -1210.53 -1211.61 -1212.78 -1214.04 -1215.38 -1216.82 -1218.34 -1219.95 -1221.65 -1223.44 -1225.32 -1227.28 -1229.33 -1231.47 -1233.70 -1236.01 -1238.41 -1240.89 -1243.47 -1246.12 -1248.86 -1251.69 -1254.60 -1257.60 -1260.68 -1263.85 -1267.09 -1270.43 -1273.84 -1277.34 -1280.91 -1284.57 -1288.32 -1292.14 -1296.04 -1300.02 -1304.09 -1308.23 -1312.45 -1316.75 -1321.13 -1325.58 -1330.11 -1334.72 -1339.41 -1344.17 -1349.01 -1353.92 -1358.91 -1363.97 -1369.10 -1374.31 -1379.59 -1384.94 -1390.37 -1395.86 -1401.43 -1407.07 -1412.77 -1418.55 -1424.39 -1430.31 -1436.29 -1442.34 -1448.45 -1454.64 -1460.89 -1467.20 -1473.58 -1480.02 -1486.53 -1493.10 -1499.74 -1506.44 -1513.20 -1520.02 -1526.90 -1533.84 -1540.85 -1547.91 -1555.03 -1562.22 -1569.46 -1576.75 -1584.11 -1591.52 -1598.99 -1606.51 -1614.09 -1621.73 -1629.42 -1637.16 -1644.96 -1652.81 -1660.71 -1668.67 -1676.68 -1684.74 -1692.85 -1701.01 -1709.22 -1717.48 -1725.79 -1734.14 -1742.55 -1751.00 -1759.50 -1768.05 -1776.65 -1785.29 -1793.98 -1802.71 -1811.49 -1820.31 -1829.17 -1838.08 -1847.04 -1856.03 -1865.07 -1874.15 -1883.28 -1892.44 -1901.65 -1910.89 -1920.18 -1929.50 -1938.87 -1948.27 -1957.72 -1967.20 -1976.72 -1986.28 -1995.87 -2005.50 -2015.17 -2024.88 -2034.62 -2044.39 -2054.21 -2064.05 -2073.93 -2083.85 -2093.80 -2103.78 -2113.80 -2123.85 -2133.93 -2144.05 -2154.20 -2164.38 -2174.59 -2184.83 -2195.10 -2205.41 -2215.74 -2226.11 -2236.50 -2246.92 -2257.38 -2267.86 -2278.37 -2288.91 -2299.48 -2310.07 -2320.70 -2331.35 -2342.02 -2352.73 -2363.46 -2374.22 -2385.00 -2395.81 -2406.65 -2417.51 -2428.39 -2439.30 -2450.24 -2461.20 -2472.19 -2483.19 -2494.23 -2505.28 -2516.36 -2527.46 -2538.59 -2549.74 -2560.91 -2572.10 -2583.32 -2594.56 -2605.82 -2617.10 -2628.40 -2639.72 -2651.07 -2662.43 -2673.82 -2685.22 -2696.65 -2708.10 -2719.56 -2731.05 -2742.55 -2754.08 -2765.62 -2777.18 -2788.76 -2800.37 -2811.98 -2823.62 -2835.28 -2846.95 -2858.64 -2870.35 -2882.07 -2893.82 -2905.58 -2917.36 -2929.15 -2940.96 -2952.79 -2964.63 -2976.49 -2988.37 -3000.26 -3012.17 -3024.10 -3036.04 -3047.99 -3059.96 -3071.95 -3083.95
-1586.74 -1579.23 -1571.79 -1564.40 -1557.07 -1549.79 -1542.58 -1535.42 -1528.32 -1521.29 -1514.31 -1507.39 -1500.54 -1493.74 -1487.01 -1480.35 -1473.74 -1467.20 -1460.72 -1454.31 -1447.97 -1441.68 -1435.47 -1429.32 -1423.24 -1417.23 -1411.28 -1405.41 -1399.60 -1393.86 -1388.20 -1382.60 -1377.08 -1371.62 -1366.24 -1360.93 -1355.70 -1350.53 -1345.44 -1340.43 -1335.49 -1330.63 -1325.84 -1321.13 -1316.49 -1311.93 -1307.45 -1303.05 -1298.73 -1294.48 -1290.31 -1286.23 -1282.22 -1278.30 -1274.45 -1270.69 -1267.01 -1263.41 -1259.89 -1256.46 -1253.10 -1249.84 -1246.65 -1243.55 -1240.54 -1237.61 -1234.77 -1232.01 -1229.33 -1226.75 -1224.25 -1221.83 -1219.51 -1217.27 -1215.11 -1213.05 -1211.07 -1209.19 -1207.39 -1205.68 -1204.05 -1202.52 -1201.08 -1199.72 -1198.46 -1197.28 -1196.20 -1195.20 -1194.30 -1193.48 -1192.76 -1192.13 -1191.58 -1191.13 -1190.77 -1190.49 -1190.31 -1190.22 -1190.22 -1190.31 -1190.49 -1190.77 -1191.13 -1191.58 -1192.13 -1192.76 -1193.48 -1194.30 -1195.20 -1196.20 -1197.28 -1198.46 -1199.72 -1201.08 -1202.52 -1204.05 -1205.68 -1207.39 -1209.19 -1211.07 -1213.05 -1215.11 -1217.27 -1219.51 -1221.83 -1224.25 -1226.75 -1229.33 -1232.01 -1234.77 -1237.61 -1240.54 -1243.55 -1246.65 -1249.84 -1253.10 -1256.46 -1259.89 -1263.41 -1267.01 -1270.69 -1274.45 -1278.30 -1282.22 -1286.23 -1290.31 -1294.48 -1298.73 -1303.05 -1307.45 -1311.93 -1316.49 -1321.13 -1325.84 -1330.63 -1335.49 -1340.43 -1345.44 -1350.53 -1355.70 -1360.93 -1366.24 -1371.62 -1377.08 -1382.60 -1388.20 -1393.86 -1399.60 -1405.41 -1411.28 -1417.23 -1423.24 -1429.32 -1435.47 -1441.68 -1447.97 -1454.31 -1460.72 -1467.20 -1473.74 -1480.35 -1487.01 -1493.74 -1500.54 -1507.39 -1514.31 -1521.29 -1528.32 -1535.42 -1542.58 -1549.79 -1557.07 -1564.40 -1571.79 -1579.23 -1586.74 -1594.30 -1601.91 -1609.58 -1617.30 -1625.08 -1632.91 -1640.80 -1648.74 -1656.73 -1664.77 -1672.86 -1681.01 -1689.20 -1697.45 -1705.74 -1714.09 -1722.48 -1730.92 -1739.41 -1747.95 -1756.53 -1765.16 -1773.83 -1782.56 -1791.32 -1800.14 -1808.99 -1817.89 -1826.84 -1835.82 -1844.86 -1853.93 -1863.04 -1872.20 -1881.40 -1890.64 -1899.92 -1909.24 -1918.60 -1928.00 -1937.43 -1946.91 -1956.43 -1965.98 -1975.57 -1985.20 -1994.87 -2004.57 -2014.31 -2024.08 -2033.89 -2043.73 -2053.61 -2063.53 -2073.48 -2083.46 -2093.48 -2103.52 -2113.61 -2123.72 -2133.87 -2144.05 -2154.26 -2164.50 -2174.78 -2185.08 -2195.42 -2205.78 -2216.18 -2226.60 -2237.06 -2247.54 -2258.06 -2268.60 -2279.17 -2289.77 -2300.39 -2311.05 -2321.73 -2332.43 -2343.17 -2353.93 -2364.72 -2375.53 -2386.37 -2397.23 -2408.12 -2419.04 -2429.98 -2440.94 -2451.93 -2462.95 -2473.98 -2485.04 -2496.13 -2507.24 -2518.37 -2529.52 -2540.70 -2551.90 -2563.12 -2574.36 -2585.63 -2596.91 -2608.22 -2619.55 -2630.90 -2642.27 -2653.66 -2665.07 -2676.51 -2687.96 -2699.43 -2710.92 -2722.44 -2733.97 -2745.52 -2757.09 -2768.68 -2780.28 -2791.91 -2803.55 -2815.21 -2826.89 -2838.59 -2850.31 -2862.04 -2873.79 -2885.56 -2897.34 -2909.15 -2920.96 -2932.80 -2944.65 -2956.52 -2968.40 -2980.30 -2992.22 -3004.15 -3016.10 -3028.06 -3040.04 -3052.04 -3064.05 -3076.07
-1574.50 -1566.97 -1559.49 -1552.06 -1544.70 -1537.39 -1530.14 -1522.95 -1515.82 -1508.75 -1501.73 -1494.78 -1487.90 -1481.07 -1474.31 -1467.60 -1460.97 -1454.39 -1447.88 -1441.44 -1435.06 -1428.75 -1422.50 -1416.32 -1410.21 -1404.17 -1398.19 -1392.28 -1386.44 -1380.68 -1374.98 -1369.35 -1363.80 -1358.31 -1352.90 -1347.57 -1342.30 -1337.11 -1331.99 -1326.95 -1321.98 -1317.09 -1312.28 -1307.54 -1302.88 -1298.29 -1293.79 -1289.36 -1285.01 -1280.74 -1276.55 -1272.44 -1268.41 -1264.46 -1260.59 -1256.81 -1253.10 -1249.48 -1245.95 -1242.49 -1239.12 -1235.83 -1232.63 -1229.51 -1226.48 -1223.53 -1220.67 -1217.89 -1215.20 -1212.60 -1210.09 -1207.66 -1205.32 -1203.06 -1200.90 -1198.82 -1196.83 -1194.93 -1193.12 -1191.40 -1189.77 -1188.23 -1186.77 -1185.41 -1184.14 -1182.96 -1181.86 -1180.86 -1179.95 -1179.13 -1178.40 -1177.76 -1177.22 -1176.76 -1176.40 -1176.12 -1175.94 -1175.85 -1175.85 -1175.94 -1176.12 -1176.40 -1176.76 -1177.22 -1177.76 -1178.40 -1179.13 -1179.95 -1180.86 -1181.86 -1182.96 -1184.14 -1185.41 -1186.77 -1188.23 -1189.77 -1191.40 -1193.12 -1194.93 -1196.83 -1198.82 -1200.90 -1203.06 -1205.32 -1207.66 -1210.09 -1212.60 -1215.20 -1217.89 -1220.67 -1223.53 -1226.48 -1229.51 -1232.63 -1235.83 -1239.12 -1242.49 -1245.95 -1249.48 -1253.10 -1256.81 -1260.59 -1264.46 -1268.41 -1272.44 -1276.55 -1280.74 -1285.01 -1289.36 -1293.79 -1298.29 -1302.88 -1307.54 -1312.28 -1317.09 -1321.98 -1326.95 -1331.99 -1337.11 -1342.30 -1347.57 -1352.90 -1358.31 -1363.80 -1369.35 -1374.98 -1380.68 -1386.44 -1392.28 -1398.19 -1404.17 -1410.21 -1416.32 -1422.50 -1428.75 -1435.06 -1441.44 -1447.88 -1454.39 -1460.97 -1467.60 -1474.31 -1481.07 -1487.90 -1494.78 -1501.73 -1508.75 -1515.82 -1522.95 -1530.14 -1537.39 -1544.70 -1552.06 -1559.49 -1566.97 -1574.50 -1582.10 -1589.75 -1597.45 -1605.21 -1613.02 -1620.89 -1628.81 -1636.78 -1644.81 -1652.89 -1661.01 -1669.19 -1677.42 -1685.70 -1694.03 -1702.41 -1710.84 -1719.32 -1727.84 -1736.41 -1745.03 -1753.69 -1762.41 -1771.16 -1779.96 -1788.81 -1797.70 -1806.64 -1815.62 -1824.64 -1833.70 -1842.81 -1851.96 -1861.15 -1870.39 -1879.66 -1888.97 -1898.33 -1907.72 -1917.15 -1926.63 -1936.14 -1945.69 -1955.27 -1964.90 -1974.56 -1984.26 -1993.99 -2003.77 -2013.57 -2023.42 -2033.29 -2043.21 -2053.15 -2063.13 -2073.15 -2083.20 -2093.28 -2103.40 -2113.54 -2123.72 -2133.93 -2144.18 -2154.45 -2164.76 -2175.09 -2185.46 -2195.86 -2206.29 -2216.74 -2227.23 -2237.74 -2248.29 -2258.86 -2269.46 -2280.09 -2290.74 -2301.43 -2312.14 -2322.88 -2333.64 -2344.43 -2355.25 -2366.09 -2376.96 -2387.86 -2398.77 -2409.72 -2420.69 -2431.68 -2442.70 -2453.74 -2464.81 -2475.90 -2487.01 -2498.15 -2509.31 -2520.49 -2531.69 -2542.92 -2554.17 -2565.44 -2576.73 -2588.04 -2599.38 -2610.73 -2622.11 -2633.51 -2644.93 -2656.37 -2667.83 -2679.30 -2690.80 -2702.32 -2713.86 -2725.42 -2736.99 -2748.59 -2760.20 -2771.83 -2783.49 -2795.15 -2806.84 -2818.55 -2830.27 -2842.01 -2853.77 -2865.54 -2877.34 -2889.14 -2900.97 -2912.81 -2924.67 -2936.55 -2948.44 -2960.35 -2972.27 -2984.21 -2996.17 -3008.14 -3020.13 -3032.13 -3044.14 -3056.18 -3068.22
-1562.29 -1554.72 -1547.21 -1539.75 -1532.35 -1525.00 -1517.72 -1510.49 -1503.33 -1496.22 -1489.18 -1482.20 -1475.27 -1468.41 -1461.62 -1454.88 -1448.21 -1441.60 -1435.06 -1428.58 -1422.17 -1415.83 -1409.55 -1403.34 -1397.19 -1391.12 -1385.11 -1379.17 -1373.30 -1367.50 -1361.78 -1356.12 -1350.53 -1345.02 -1339.58 -1334.21 -1328.92 -1323.70 -1318.55 -1313.48 -1308.49 -1303.57 -1298.73 -1293.96 -1289.27 -1284.66 -1280.13 -1275.68 -1271.30 -1267.01 -1262.79 -1258.66 -1254.60 -1250.63 -1246.74 -1242.93 -1239.21 -1235.57 -1232.01 -1228.53 -1225.14 -1221.83 -1218.61 -1215.47 -1212.42 -1209.46 -1206.58 -1203.78 -1201.08 -1198.46 -1195.93 -1193.48 -1191.13 -1188.86 -1186.68 -1184.59 -1182.59 -1180.68 -1178.86 -1177.13 -1175.48 -1173.93 -1172.47 -1171.10 -1169.82 -1168.63 -1167.53 -1166.52 -1165.60 -1164.78 -1164.04 -1163.40 -1162.85 -1162.39 -1162.03 -1161.75 -1161.57 -1161.47 -1161.47 -1161.57 -1161.75 -1162.03 -1162.39 -1162.85 -1163.40 -1164.04 -1164.78 -1165.60 -1166.52 -1167.53 -1168.63 -1169.82 -1171.10 -1172.47 -1173.93 -1175.48 -1177.13 -1178.86 -1180.68 -1182.59 -1184.59 -1186.68 -1188.86 -1191.13 -1193.48 -1195.93 -1198.46 -1201.08 -1203.78 -1206.58 -1209.46 -1212.42 -1215.47 -1218.61 -1221.83 -1225.14 -1228.53 -1232.01 -1235.57 -1239.21 -1242.93 -1246.74 -1250.63 -1254.60 -1258.66 -1262.79 -1267.01 -1271.30 -1275.68 -1280.13 -1284.66 -1289.27 -1293.96 -1298.73 -1303.57 -1308.49 -1313.48 -1318.55 -1323.70 -1328.92 -1334.21 -1339.58 -1345.02 -1350.53 -1356.12 -1361.78 -1367.50 -1373.30 -1379.17 -1385.11 -1391.12 -1397.19 -1403.34 -1409.55 -1415.83 -1422.17 -1428.58 -1435.06 -1441.60 -1448.21 -1454.88 -1461.62 -1468.41 -1475.27 -1482.20 -1489.18 -1496.22 -1503.33 -1510.49 -1517.72 -1525.00 -1532.35 -1539.75 -1547.21 -1554.72 -1562.29 -1569.92 -1577.61 -1585.35 -1593.14 -1600.99 -1608.89 -1616.85 -1624.85 -1632.91 -1641.03 -1649.19 -1657.40 -1665.67 -1673.99 -1682.35 -1690.76 -1699.23 -1707.74 -1716.30 -1724.90 -1733.56 -1742.26 -1751.00 -1759.79 -1768.63 -1777.51 -1786.44 -1795.41 -1804.42 -1813.48 -1822.58 -1831.72 -1840.91 -1850.13 -1859.40 -1868.71 -1878.06 -1887.45 -1896.87 -1906.34 -1915.85 -1925.39 -1934.98 -1944.60 -1954.25 -1963.95 -1973.68 -1983.45 -1993.26 -2003.10 -2012.97 -2022.88 -2032.83 -2042.81 -2052.82 -2062.87 -2072.95 -2083.07 -2093.22 -2103.40 -2113.61 -2123.85 -2134.13 -2144.43 -2154.77 -2165.14 -2175.54 -2185.97 -2196.42 -2206.91 -2217.43 -2227.98 -2238.55 -2249.15 -2259.78 -2270.44 -2281.13 -2291.84 -2302.59 -2313.35 -2324.15 -2334.97 -2345.82 -2356.69 -2367.59 -2378.51 -2389.46 -2400.43 -2411.43 -2422.45 -2433.50 -2444.57 -2455.67 -2466.78 -2477.93 -2489.09 -2500.28 -2511.49 -2522.72 -2533.97 -2545.25 -2556.55 -2567.87 -2579.21 -2590.57 -2601.95 -2613.36 -2624.78 -2636.23 -2647.69 -2659.18 -2670.69 -2682.21 -2693.75 -2705.32 -2716.90 -2728.50 -2740.12 -2751.76 -2763.42 -2775.10 -2786.79 -2798.50 -2810.24 -2821.98 -2833.75 -2845.53 -2857.33 -2869.15 -2880.98 -2892.83 -2904.70 -2916.58 -2928.48 -2940.40 -2952.33 -2964.28 -2976.24 -2988.22 -3000.21 -3012.22 -3024.25 -3036.29 -3048.34 -3060.41
